ply
format ascii 1.0
element vertex 1173
property float x
property float y
property float z
property uchar red
property uchar green
property uchar blue
end_header
-0.667689 -0.367647   1.97722 43 51 70
 0.380861 -0.325678   1.75446 103 102 48
 0.156241 -0.621974   2.45168 106 96 45
 0.380264 -0.287809   1.76243 111 110 46
 0.464201 -0.227321   2.03303 112 103 98
 0.841147 -0.116357   1.89969 88 94 110
 0.791681 -0.384773   1.77227 97 100 43
0.412049 -0.38559    1.789 96 99 44
 0.562121 -0.745222   2.67084 77 91 100
 0.779807 -0.384704   1.77666 81 88 47
-0.128872 -0.452054   1.80048 206 194 172
 0.793875 -0.359135   1.76055 94 98 48
-0.718446 -0.296226    1.9135 64 70 86
 0.667126 -0.135262   1.94423 39 39 49
 0.169297 -0.549087   2.39488 117 95 82
 0.796913 -0.558038   1.93174 43 45 40
 0.728704 -0.388165   1.78162 61 63 49
 0.39173 -0.32496  1.76489 109 112 41
-0.0791547 -0.0445288    1.74257 101 100 98
0.00884335  -0.504917    1.90699 211 187 163
 0.841997 -0.137819   1.88237 95 108 125
 0.596716 -0.213498   2.04022 50 54 65
-0.147754 -0.098133   1.72301 255 233 187
-0.684114 -0.420157   2.02799 69 83 109
 0.726552 -0.237496   2.05254 51 52 56
 0.802882 -0.301332   1.91101 45 43 44
 0.849936 -0.124531   1.88814 89 105 131
 0.331338 -0.222308   1.73225 84 96 118
  0.81284 -0.107133   1.91006 29 32 37
 0.592483 -0.616548    2.5041 42 57 80
 0.848058 -0.549085   1.91781 37 37 35
-0.685371 -0.301263   1.92347 63 65 86
-0.586029 -0.445714   2.04521 27 39 61
 0.821132 -0.848976   2.60983 67 65 42
 0.606526 -0.304631   2.14751 44 44 52
  0.860106 -0.0504997    1.83998 30 32 31
-0.737888 -0.317073   1.93622 64 76 100
-0.0323369 0.00633789    1.68597 73 84 90
-0.0892705  0.0480482    1.62748 64 78 87
 0.730536 -0.504181   1.88387 49 51 48
-0.0392105 0.00127524    1.68815 92 95 100
 0.677121 -0.413418   1.83841 48 50 37
 0.815098 -0.213825   1.83452 76 55 62
 -0.66126 -0.486245   1.97559 65 98 131
 0.795227 -0.302757   1.91251 63 63 63
 0.882226 -0.111577    1.8974 64 77 93
 0.814728 -0.119665   1.92142 40 40 40
 0.131716 -0.570962   2.41161 125 97 76
 0.155261 -0.477888     2.307 101 82 75
-0.000951849    -0.510509      1.91389 214 188 155
  0.845366 -0.0484856     1.8306 26 25 30
 0.674458 -0.124988   1.93594 42 42 50
 0.791282 -0.139025   1.94704 22 23 25
 0.710522 -0.111157   1.91866 29 30 34
 0.338293 -0.408817   1.81935 31 32 27
-0.248764 0.0463077   1.63899 131 114 104
-0.644886  -0.51155   2.02361 72 94 117
 0.819627 -0.110957   1.90933 41 37 38
 0.875869 -0.102947   1.87902 75 90 113
  0.282968 -0.0650266    1.66584 112 99 83
 0.707919 -0.109614   1.91124 34 35 39
 0.825402 -0.218131   1.82177 109 64 71
 0.878114 -0.108724   1.88046 65 80 101
 0.639235 -0.134221   1.93941 46 58 70
   0.837508 -0.00306842     1.79047 41 47 59
 0.876736 -0.115603    1.8699 69 84 103
 0.683266 -0.274502   2.04219 26 28 27
 0.704716 -0.179311   1.99142 20 22 21
 0.803973 -0.120158   1.92665 41 42 46
0.0525113 -0.445493   1.83235 75 90 111
-0.0875683  0.0586916    1.62845 74 83 92
-0.727643  -0.42031   1.93523 81 39 41
  0.867615 -0.0720064    1.87013 36 37 41
 0.626402 -0.170323   1.97877 40 49 58
  0.58511 -0.300196   2.13616 41 43 55
 0.57245 -0.74322  2.66688 50 59 76
  0.841423 -0.0971038    1.89842 35 36 40
 0.588188 -0.308317   2.14407 36 36 44
 0.801004 -0.287146    1.9249 40 41 45
0.0325185 -0.292892   1.78601 105 97 94
 0.229608 0.0110792   1.71169 60 46 43
  0.59704 -0.356032    2.1959 37 46 61
-0.0487608  0.0321935    1.66355 94 98 107
-0.220856 -0.113715   1.72275 124 97 70
  0.888103 -0.0955717    1.87203 67 85 109
 0.655283 -0.127256    1.9314 46 46 54
 0.733758 -0.188129   2.00489 17 19 18
  0.825502 -0.0149869    1.80907 46 51 70
  0.862852 -0.0438069    1.84129 29 31 30
-0.142422 -0.109186   1.72495 254 252 195
 0.838059 -0.216562   1.80863 98 51 57
  0.21362 0.0237309   1.69697 83 69 60
 0.821182 -0.143165    1.8808 57 38 44
 0.567876 -0.308942    2.1494 45 52 70
 0.678908 -0.133078    1.9426 39 38 43
 0.784434 -0.342588   2.18606 17 19 18
 0.812863 -0.131233   1.90659 35 31 32
  0.806802 -0.0707215    1.86405 37 38 42
 0.767637 -0.170219   1.98135 14 16 15
-0.202598 -0.137649   1.73665 123 90 57
 0.598785 -0.239629   2.06619 21 25 28
  0.846667 -0.0164883    1.80152 36 37 42
 0.598309 -0.252455   2.08629 30 33 38
  0.828728 -0.0271905    1.82163 36 38 50
  0.59327 -0.231051   2.05698 32 35 42
  0.866626 -0.0596384    1.85393 27 29 28
  0.830529 -0.0139901     1.8079 45 52 68
  0.35512 -0.400126   1.80855 18 20 17
  0.878826 -0.0779445    1.86829 21 22 26
 0.224297 0.0157603   1.70745 82 65 57
 0.665123 -0.114329   1.91994 40 39 47
 0.785811 -0.284404   2.10722 15 17 16
 0.646179 -0.351928   2.19451 23 24 29
-0.122174 0.0666879    1.6263 91 87 86
 0.225587 -0.788725   2.66799 16 18 17
 0.563038 -0.263136   2.09186 43 51 70
-0.00576724   0.0475548     1.65453 77 78 82
 0.44424 -0.22243  2.02064 37 36 41
 0.807577 -0.143916   1.95422 18 20 19
 0.688704 -0.126012   1.92969 35 35 43
0.588777 -0.19503  2.01081 38 44 56
 0.592493 -0.727305   2.64915 44 60 85
 0.577144 -0.217662   2.03734 45 51 63
-0.693002 -0.436058   1.94092 84 40 39
 0.569492 -0.116057   1.90983 41 49 68
 0.438088 -0.214198   2.01043 34 34 42
 0.613319 -0.199183   2.02178 34 34 44
 0.711834 -0.114441   1.92039 25 26 30
 0.633825 -0.207847   2.01182 13 15 14
-0.650613 -0.442285    2.0518 33 46 65
 0.610717 -0.230352   2.02519 14 14 14
0.218673 -0.75358  2.65634 38 40 55
 0.805001 -0.131804   1.93523 15 16 20
 0.763515 -0.180822   1.97964 14 16 15
  0.870325 -0.0596238     1.8474 13 15 14
-0.221038 0.0226765   1.56473 84 73 69
 0.744733 -0.268553   2.07744 18 19 21
  0.824166 -0.0830409    1.88519 33 35 34
 0.773492 -0.273304   2.08063 20 20 20
 0.772463 -0.264182   2.05752 16 16 16
 0.753439 -0.215388   2.02417 19 21 20
  0.817219 -0.0708696    1.86614 28 29 33
 0.812228 -0.126351   1.92672 13 15 14
 0.800349 -0.133307   1.92843 17 18 22
  0.76103 -0.144674   1.94807 15 17 16
-0.461157 -0.164508   1.71341 249 249 213
-0.745544 -0.366726   1.96341 28 31 46
-0.374713  -0.18308   1.62753 249 249 215
-0.686035 -0.437022   1.94924 73 33 34
-0.153561 -0.106447   1.70738 240 223 171
 -0.156764 -0.0911206    1.71723 205 180 139
-0.646769 -0.401881   2.09786 2 3 7
-0.655023 -0.397177   2.09958 2 3 5
-0.142573 -0.106048   1.72569 226 204 154
-0.642414 -0.448033    2.0677 22 36 62
-0.0482389  -0.241981    1.74669 226 205 150
 0.221797 -0.236096   1.74814 63 84 115
-0.212881 -0.110108   1.73327 83 61 40
  -0.15508 -0.0960816    1.71662 199 175 131
 0.058939 -0.244161   1.76383 209 180 150
-0.0608691  -0.438461    1.84453 75 73 74
-0.066315 -0.316846   1.66894 22 18 32
-0.0529041  -0.248443    1.74158 179 150 110
-0.0593054  -0.252176    1.73926 105 81 43
-0.674509 -0.422484   2.02796 29 39 64
-0.123459 -0.130751   1.66467 65 43 30
-0.447698 -0.310011   1.75739 139 40 71
-0.0362658   -0.28389     1.7519 75 60 41
-0.0640005  -0.317409    1.68502 37 0 5
 0.214776 -0.274176   1.78037 72 70 73
 -0.220433 -0.0660454    1.64328 173 143 119
 -0.302714 -0.0545266    1.55822 96 72 44
  0.25621 -0.118066   1.65458 201 160 128
 -0.231139 -0.0347025    1.67443 27 12 15
 -0.146294 -0.0636576    1.75731 44 29 32
-0.0574761  -0.250648    1.73781 125 99 64
 -0.298553 -0.0555021    1.56078 91 70 51
-0.278069   -0.1735   1.64802 17 8 9
 0.288966 -0.075133   1.66103 114 106 87
-0.138102 -0.135872   1.72358 71 52 38
-0.153716 -0.123602   1.70164 72 56 41
 -0.190246 -0.0981702    1.66836 71 57 46
 -0.24502 -0.059129   1.61638 74 60 49
-0.236913 -0.124285   1.60237 9 4 8
-0.178253 -0.066384   1.72661 2 0 1
-0.123258 -0.172285   1.71903 57 31 14
0.791572 -0.33957   1.7736 59 64 34
 0.691062 -0.555087   1.94467 44 46 43
 0.612332 -0.473116   1.87831 32 34 33
 0.602541 -0.506007    2.3804 36 39 54
 0.697727 -0.467377   1.86882 28 28 28
 0.684309 -0.430434   1.84278 35 36 31
 0.600822 -0.484421   2.35183 39 43 52
-0.77632  -0.5258  2.01865 254 255 224
-0.0652362   -0.27187    1.69676 219 206 164
0.0276103 -0.359186   1.81233 249 252 209
-0.288275 -0.241866   1.70889 250 250 198
-0.440099  0.168062   1.50044 248 251 196
0.0980432 -0.417283   1.85152 251 251 217
-0.111518 -0.125349   1.73106 251 250 222
-0.420931  0.149289   1.52987 252 249 182
  0.227906 -0.0428119    1.66974 250 251 233
-0.0889991  -0.276056    1.66855 250 251 219
-0.523822  0.285772   1.48361 250 251 181
 0.157658 0.0061288   1.59372 255 249 207
-0.0739976   0.252763    1.47694 141 143 140
 -0.21579 -0.376865   1.71096 249 250 206
 -0.324571 -0.0396062    1.51165 252 251 205
-0.698804  0.384475   1.45272 88 128 177
 -0.452464 -0.0961988    1.60701 252 251 195
-0.554029  0.346127    1.4939 252 251 197
  0.204272 -0.0249166    1.66813 254 251 210
-0.0963326  -0.212005    1.68315 250 245 225
-0.653037  0.239367   1.51954 142 127 106
-0.00904848   -0.557006     1.87985 252 253 213
0.0989525   0.34031   1.58007 67 80 96
-0.653717  0.342152   1.49255 96 118 155
-0.213855 0.0649235   1.56807 115 97 85
0.0626516  -0.46256   1.81402 253 251 210
0.106761 -0.37108  1.88262 249 249 213
  0.43946 -0.326117    1.8042 112 114 67
-0.496159 -0.273302   1.73143 249 249 195
0.397571 0.297812  1.58403 95 113 117
-0.512141 -0.151022   1.62743 204 183 152
0.00415692   0.345613      1.512 67 85 99
  0.304902 -0.0050954    1.64815 185 168 142
-0.0770113   0.285887    1.49528 129 140 136
-0.330536 0.0576515   1.58926 250 240 191
-0.553898 -0.229616   1.67212 251 250 194
 -0.22477 -0.576961    1.8888 254 252 204
-0.274919 -0.318396   1.77065 254 248 226
 0.451276 0.0615862   1.55301 248 251 196
-0.818055  0.291274   1.55143 255 248 246
-0.339422 -0.491321   1.77523 229 223 197
0.862436 -0.16685  1.83603 82 99 125
 0.510737 0.0186396   1.61627 243 223 188
0.283147  0.12882   1.4296 95 82 66
-0.00825984   -0.536391     1.90081 252 249 204
-0.0297594  0.0963346    1.67481 81 84 89
-0.585689 -0.161527   1.69282 250 246 221
-0.587803 -0.146764   1.70703 254 252 213
-0.278469  0.165114   1.49919 155 138 66
  0.518773 -0.0560834    1.68068 82 101 131
-0.102268 -0.230112   1.68425 251 253 216
-0.593303  0.127021   1.49607 102 102 104
-0.0775198   0.240139    1.47164 144 147 140
 0.883187 -0.104612   1.86497 67 83 108
-0.572292 -0.126159   1.69331 205 182 148
-0.108435 -0.105031   1.78189 254 247 193
 0.918427 -0.309755   1.88374 238 234 199
 -0.712784 -0.0688629    1.69697 16 5 9
-0.135803 -0.597431   1.98488 253 247 197
-0.712943 0.0134252   1.64128 153 137 114
-0.460153  0.237796   1.53452 120 106 103
 -0.171509 -0.0109314    1.68462 118 109 102
0.651854 0.307009  1.54351 85 93 114
 -0.216138 -0.0363753    1.67978 255 251 215
-0.31019 0.295164  1.37329 67 49 9
0.666585 0.166122  1.50508 187 165 152
-0.480069  0.254701   1.52532 137 130 112
-0.638302  0.347215   1.48587 103 130 151
-0.420728 0.0618036   1.52728 223 218 180
-0.080533  0.346988   1.54245 101 128 137
0.193957 0.171164   1.6602 75 79 82
-0.250378  0.324017   1.42538 62 53 22
 0.387696 -0.791978   2.64881 73 86 105
0.171901 0.209949  1.70331 75 92 100
-0.212727  0.154373   1.52441 117 127 119
 0.291643 -0.274413   1.78066 221 205 179
-0.768514  -0.37168   1.94239 94 94 104
-0.361985 0.0364235   1.59445 243 228 195
-0.650501  0.363393   1.47953 103 124 145
-0.228774  0.231844   1.55063 174 172 149
-0.116988  -0.45086    1.8038 248 253 197
   -0.692859 -0.000775917      1.65526 166 150 137
-0.326025 -0.344723   1.81728 204 177 147
 -0.664543 -0.0236924    1.68876 120 104 91
-0.818631 -0.340535   1.89111 222 194 154
-0.450396 0.0824059   1.50243 231 224 198
 0.504478 -0.125708   1.82315 122 140 154
 0.456429 -0.366827   1.80641 96 98 23
-0.997152 0.0173282   1.83116 201 178 136
-0.232544 -0.296656   1.75829 187 158 126
-0.185329 -0.404582   1.72983 251 253 180
0.0155629 -0.036767   1.69994 176 156 129
-0.783979 0.0659724   1.56734 121 112 115
 0.388727 -0.501383   1.91999 35 35 0
-0.381473 0.0602023   1.58973 175 166 135
-0.816914 -0.365111   1.93159 195 174 143
-0.659359 -0.388861   1.98774 55 72 98
0.370284 0.273396  1.54869 82 96 99
-0.581583  -0.51176   2.13068 78 95 115
-0.672755  0.379596   1.45255 102 128 151
-0.792014 -0.378734   1.87216 205 132 89
-0.362333 0.0479538   1.60223 211 202 173
0.531414 0.123774   1.6011 106 99 89
-0.689386    0.3051   1.53313 74 84 94
  -0.682197 -0.00995436     1.67069 126 112 103
 0.299661 -0.622194   2.34739 39 54 77
-0.725304 0.0228345   1.62788 156 139 123
-0.450997  0.108038   1.52403 214 208 184
-0.389966 0.0382439   1.55092 178 167 139
-0.116546 -0.494037   1.77777 255 254 253
-0.276867 -0.255596     1.715 246 252 192
0.512404  0.14414  1.59806 120 117 108
-0.391132 0.0557804   1.56869 204 195 162
-0.161436  0.126302   1.51673 90 90 90
 0.786881 -0.437222   1.80234 120 122 59
0.010899 0.430607    1.471 57 70 87
-0.420043 -0.313831   1.78535 253 239 192
-0.276337 -0.358582   1.77386 207 181 148
0.0540322   0.04151   1.64069 90 84 84
 0.362352 0.0732532   1.62686 98 114 114
-0.00206295    0.238129     1.55908 119 122 111
-0.134786 -0.616669   1.98093 255 252 197
-0.217659 -0.341554   1.72532 206 176 148
 -0.79908 -0.337682   1.92544 249 229 176
0.631306 0.297709  1.55841 67 82 101
 0.192126 -0.659543   2.49362 117 119 131
 -1.04209 -0.489733    1.9821 136 136 128
 0.346941 -0.808436    2.6954 67 85 95
-0.633084 -0.471265   2.06152 62 75 94
-0.710015 -0.327555   1.94143 41 49 72
-0.774157 -0.395667   1.88523 200 127 86
-0.219772  0.298265   1.61271 79 74 80
-0.259663 -0.310426    1.7759 205 174 143
-0.725127 -0.696612    2.2257 204 193 171
  -0.714628 -0.00769672     1.62739 241 238 233
-0.690258 -0.662945   2.21019 160 141 101
-0.59029 0.176488  1.44943 154 127 97
-0.211128 -0.247496   1.71048 254 250 215
 -0.707289 -0.0754799    1.70558 40 17 0
-0.804366 -0.253049   1.95689 144 119 97
-0.993004 0.0252249   1.80415 151 126 95
 -0.696912 -0.0209774    1.64523 226 221 218
 0.481873 -0.600824   2.01066 121 110 48
 0.411727 -0.277985   1.78477 121 121 51
0.629321 0.104409  1.44373 84 53 33
 0.151006 0.0205788   1.60383 240 231 192
 -0.254821 0.00452587    1.66196 136 123 104
-0.119122  0.351302    1.5531 65 78 94
  -1.0271 -0.405312   1.95765 173 116 99
-0.341294 -0.169913   1.69982 242 220 209
-0.570712 -0.544336    2.0739 218 154 110
-0.307809 0.0675494   1.57076 221 210 206
-0.273581  0.408425   1.40623 56 56 58
-0.216455    0.3961   1.49138 81 83 95
  0.235499 -0.0255385     1.6877 255 242 198
-0.302807  0.212492   1.50466 127 106 53
-0.315232 0.0468523   1.61106 131 112 98
-0.531171 -0.233556   1.68589 251 235 209
 -0.761483 -0.0875632    1.65567 185 164 143
  0.535916 -0.0099782    1.62393 237 223 178
-0.746513 0.0176783   1.58651 164 147 131
-0.202309  0.217248   1.55183 104 106 103
-0.499251 -0.112567   1.63815 238 226 202
 0.281875 -0.443804   1.86645 91 97 25
-0.998555 -0.225008   1.82579 111 95 70
-0.396504  0.124319   1.54135 252 243 178
-0.314157 -0.508424   1.79124 250 248 223
-0.52014 0.294008  1.49942 255 247 180
 0.426062 0.0557105   1.54785 159 148 120
-0.435287 0.0707604   1.51297 210 207 172
-0.14396 0.331875  1.55059 62 72 84
0.884156  -0.1401  1.82377 77 92 111
 0.298357 0.0192584   1.65542 148 145 130
  -1.0361 0.0222037   1.81231 154 109 80
-0.0217762 -0.0112936    1.69954 113 113 113
-0.327546 0.0880515   1.55618 93 86 78
-0.205182  0.197408   1.55606 151 146 126
-0.564123  0.381242   1.49568 102 91 89
-0.709875 0.0932567   1.49142 96 48 0
-0.499532  0.229146    1.4844 195 182 137
   -1.01381 -0.00067255     1.81307 196 158 122
0.323665 -0.41393  1.82365 106 110 51
0.381451 0.339138   1.5755 90 108 130
0.77156 0.13148 1.49874 211 203 166
 0.033079 -0.377313   1.76246 253 250 217
-0.471251  0.220114   1.52606 132 111 94
 -0.845584 -0.0774204    1.66069 28 8 0
 0.890779 -0.151792   1.79336 88 110 131
-0.271944  0.123732   1.52674 115 94 47
-0.435286 0.0981482   1.53398 183 176 157
-0.00437533    0.300888     1.60749 84 94 104
 -0.719996 -0.0556228    1.69801 102 93 28
  0.51863 -0.475958   1.89055 32 33 37
-0.425635  0.148028   1.50584 252 248 185
 -1.05751 -0.475458     1.957 181 185 168
-0.583722 -0.535227   2.06351 225 151 114
-0.691404 -0.169051   1.72109 156 123 106
 0.899894 -0.146873   1.78769 80 108 130
 -0.717685 -0.0711103    1.69692 167 144 92
-0.539498 -0.225151   1.67415 249 235 208
-0.242178  0.315925   1.59018 73 62 66
 0.74576 0.191762  1.51597 96 87 82
-0.244746 -0.302473   1.76589 217 191 166
 -0.212288 -0.0233211    1.67625 174 158 135
-0.475366   0.15562   1.44831 235 238 219
-0.318321 0.0508885   1.60485 128 103 83
 0.31477 0.012263  1.63135 181 168 152
-0.226885 -0.306531   1.75262 136 117 74
0.155498 0.146312  1.69706 78 79 73
-0.122402  0.144463   1.48375 91 92 96
 0.0140268 -0.0194609     1.7154 122 124 119
 0.960997 -0.342252   1.93149 126 129 144
 0.785401 -0.444843   1.80369 102 105 38
-0.713226 -0.527702   2.04565 86 86 88
-0.450865  0.116533   1.52836 203 197 183
  0.62639 0.0569556   1.70629 106 86 77
 0.604912 -0.429733   1.86084 109 110 50
-0.593678 -0.103708   1.71022 228 220 199
 -0.726452 -0.0913238    1.66279 172 149 107
-0.639659  0.417826   1.44566 22 24 37
 0.805518 -0.464619   1.80413 61 61 0
 0.873753 -0.277714   1.85463 222 220 205
0.313682 0.393458   1.5244 68 85 105
0.327908 0.246629  1.55046 79 87 90
-0.443095  0.104238   1.52764 127 120 112
 0.302819 -0.415936   1.83601 93 103 34
-0.281011  0.339929   1.37921 19 11 0
-0.0351836  -0.526636    1.93018 158 142 116
-0.0347253   0.363288     1.5295 62 76 87
0.160985 0.174507  1.70512 81 89 91
 0.617653 0.0583721   1.58044 174 154 129
 0.050091 -0.324732   1.81051 255 244 205
-0.250569 0.0825097    1.5278 164 123 41
-0.281664  0.230929   1.46284 69 43 8
-0.508653  0.284702   1.50554 226 206 173
-0.381534 0.0292919   1.56204 211 206 166
-0.122462 -0.288622    1.6386 207 181 146
 -0.700209 -0.0470302    1.70727 151 129 71
-0.448368  0.082976   1.48693 250 243 233
0.352839 0.364398  1.55871 70 85 106
 0.631379 -0.474287   1.87841 106 120 35
 0.535637 -0.238202     2.035 39 48 63
-0.0338423   0.325149    1.57859 77 94 104
-0.560631  0.401549   1.46718 119 107 95
-0.691909  0.300327   1.53251 144 147 162
-0.480884  0.226727   1.50949 143 126 106
0.276939 0.341103  1.48677 68 80 94
 0.456095 -0.412083   1.85954 121 126 44
-0.711443 -0.162401    1.8609 134 111 67
-0.0880513 -0.0458963     1.7334 124 115 110
-0.493874  0.170252    1.4332 223 226 209
  -0.7089 -0.083446   1.69352 160 131 89
 0.374003 -0.613839   2.05824 107 103 29
 0.334885 -0.319809    1.7833 119 104 49
 -0.730023 -0.0756144    1.69782 198 170 122
 -0.76312 -0.382032   1.94137 87 87 95
 -0.697218 -0.0189091    1.64745 227 222 218
 0.498117 0.0737181   1.64354 207 181 148
  0.878328 -0.0147783    1.78051 60 72 88
 -0.681921 -0.0292438    1.65879 228 228 220
-0.814309 -0.281906   1.95571 230 202 162
 0.946618 -0.522078   1.95347 53 52 6
-0.34729 0.274459  1.49125 77 90 109
-0.901156 -0.325064   1.89832 162 151 131
-0.0852143  -0.150968    1.73466 170 141 97
0.157518 0.368467  1.55771 66 83 99
-0.942469 -0.338719   1.92505 145 71 34
-0.786419 0.0468723   1.56036 222 215 205
-0.748298 -0.110777   1.64655 91 65 40
 0.303507 -0.332976    1.7852 101 98 45
-0.442018  0.277617   1.59729 83 84 88
 0.295648 -0.485869   2.33172 79 58 53
-0.405106 0.0756379   1.56173 188 175 158
 -0.732577 0.00729996    1.61167 217 213 202
-0.615483  0.297065   1.48758 161 159 160
-0.521269   0.34312   1.53874 75 72 79
-0.112834  -0.33018   1.59618 200 175 144
 -0.93474 -0.317641   1.93158 198 121 77
-0.777104  0.058612   1.58082 90 90 100
   0.23461 -0.0130286    1.70192 131 133 120
  0.276067 -0.0721989    1.64996 246 233 214
 -0.4088 0.065723  1.54456 239 226 210
 -0.684335 -0.0135537    1.67434 216 208 197
  0.79143 -0.312635   1.89941 177 139 103
 0.305165 -0.447226   1.84596 111 121 50
-0.687601  0.396993    1.4453 102 128 155
-0.782155 -0.221679   1.69273 45 19 2
-0.750858 0.0366619   1.60779 201 191 166
 0.923156 -0.328879   1.91349 113 127 140
0.0877028  0.322007   1.60082 80 88 99
 0.641111 -0.458132   1.84894 95 100 42
-0.342216  0.163861   1.48536 120 104 44
 0.864755 -0.285563   1.86205 101 129 140
-0.30543  0.27875  1.46835 65 82 102
-0.488397  0.232873   1.50362 138 122 106
-0.0818386  -0.105609    1.76228 223 190 149
0.523894 0.256662  1.44893 66 77 83
-0.0125895    0.14977    1.49936 72 72 80
-0.594869 0.0377606   1.62069 163 151 125
-0.474986  0.156692   1.44873 211 214 197
-0.0646533 -0.0365657    1.73053 136 123 106
 0.428703 -0.598577   2.07664 172 141 110
 -0.664967 -0.0451806     1.6761 199 192 184
  -0.697363 -0.00661275      1.6568 222 217 211
  -0.713306 -0.00578594     1.62708 234 229 226
-0.480501 -0.278922   1.72937 254 249 219
-0.357122  0.146193   1.49637 86 75 11
 0.909759 -0.318334   1.90279 100 119 136
 0.863827 -0.278829   1.86601 119 124 128
-0.531709  -0.23098   1.68276 255 238 218
 0.245773 -0.300963   1.79585 255 240 217
 0.566105 0.0145037   1.69316 148 131 103
-0.164363 -0.334687   1.67646 140 130 129
 -0.24245 -0.340343   1.73399 200 176 140
-0.282344   0.30756   1.58963 98 69 53
-0.234475  0.413577   1.47326 90 89 94
   0.190332 -0.00538973     1.64373 249 229 204
-0.223721  -0.34886    1.7182 214 170 141
 0.651304 -0.440391   1.85102 74 84 11
-0.609692 -0.114015   1.71868 203 189 180
 0.253541 -0.507744   2.34989 131 111 100
 0.203928 -0.642018   2.46173 187 189 176
 -0.71552 0.0824019   1.48641 121 76 9
0.527245 0.359679  1.50858 45 54 63
-0.217855  0.339998   1.38549 110 100 51
-0.215498 -0.366025   1.72247 253 250 205
 0.815321 -0.390781   1.75803 80 83 30
0.494336 0.338028  1.55912 46 50 61
  0.125778 -0.0350975    1.60041 86 74 62
 0.738526 -0.580596   1.96322 112 114 41
-0.369618  0.266188    1.5113 81 93 105
-0.367187 -0.384307   1.83829 199 185 158
-0.540499 -0.234186   1.67086 255 250 226
-0.536686    0.3274   1.51362 100 90 78
 0.45678 0.358119   1.5712 64 79 98
 0.441548 0.0760328   1.55249 251 248 205
 -0.744242 -0.0309256    1.69335 188 151 106
-0.326363   0.16833   1.49651 137 120 64
-0.728043 0.0275613   1.62772 255 249 219
0.743061 0.151617  1.50283 209 191 177
 0.326432 -0.453492   1.85183 108 113 46
-0.636283  0.342847    1.4938 122 126 137
0.0479601 -0.337686   1.81642 249 251 214
-0.761772 0.0529733   1.59556 202 188 149
-0.766967 0.0338353   1.57524 198 198 198
-0.43166 0.170841  1.52042 253 240 187
-0.696327  0.396478   1.44487 108 125 155
  0.272614 -0.0561791    1.66726 253 246 227
 -0.715306 0.00673938    1.63955 227 224 209
 -0.663391 -0.0265527     1.6875 229 221 210
 -0.728769 -0.0878715    1.67079 177 160 108
   0.644842 -0.00390025     1.52585 129 103 86
 0.541297 0.0416897   1.67978 207 194 152
 -0.735878 -0.0933638     1.7056 160 140 105
-0.398946 0.0786438   1.53014 168 148 115
-0.0391707   0.145606    1.48399 79 79 79
-0.429759 -0.315927   1.77481 247 242 213
-0.607398  0.177446   1.44132 121 63 25
0.0954611 -0.397242    1.8563 253 250 215
-0.807915 -0.346857   1.91165 251 239 217
-0.0942543  -0.176276    1.74672 193 169 145
-0.550459  0.339511   1.49171 255 255 204
 -0.24299 -0.312642   1.75731 197 182 161
0.370897 -0.35046  1.76346 110 114 37
 -0.53661 -0.568959   2.10555 63 41 53
-0.389382  0.106705   1.54304 222 211 189
0.702998 -0.38638  1.81298 97 108 52
-0.724614 -0.338392   1.95497 39 47 66
  0.87782 -0.218879   1.77866 134 146 158
0.0311012  0.302309   1.61907 72 73 77
-0.337449 -0.491661   1.78554 249 247 224
 -1.25695 -0.446772   2.18229 71 76 80
  0.43441 -0.285395   1.79547 118 120 45
-0.740324 -0.570067   2.04553 242 233 234
-0.712166  0.115543   1.50595 129 73 40
 0.933992 -0.274639   1.87584 65 67 64
-0.343678  0.144596   1.50328 139 128 39
 0.816239 -0.421702   1.79032 89 94 28
 0.789058 -0.325829   1.88646 150 110 75
 0.876096 -0.296712   1.87137 153 159 147
 -0.25456 0.0649593   1.54677 141 106 64
-0.784938  0.049578   1.56053 215 206 197
 0.516072 0.0601936   1.65633 171 155 122
 0.181584 -0.699697   2.54739 59 104 133
 -0.122652 0.00580988    1.66742 114 107 97
-0.457832  0.143896   1.46795 224 227 220
0.269825 -0.43564  1.86357 100 106 68
-0.00524889   -0.551173     1.88051 255 255 195
-0.407607 -0.329069   1.79294 254 243 221
 0.631626 -0.451538   1.84983 104 113 50
-0.697013 -0.104522   1.71167 157 141 105
-0.714877 0.0189997   1.63825 255 249 213
-0.227424  0.307236   1.38642 126 105 50
-0.628434  -0.48156   2.06996 69 85 98
0.657473 0.165566  1.48655 251 230 213
0.906556 -0.11039  1.83174 74 92 112
 0.809869 -0.506096   1.88427 86 95 32
-0.476641  0.169618   1.46106 229 223 207
-0.000733669     0.299129      1.61111 88 97 106
 0.327403 -0.250153   1.74313 194 187 179
   0.182728 0.000532705     1.63225 255 247 223
0.442009 0.341574  1.59096 62 74 86
-0.254492  0.320801   1.38829 73 68 2
-0.416955  0.159381   1.53699 252 237 182
-0.281364 -0.507187   1.81614 97 101 112
-0.370253 0.0783919   1.54699 218 210 199
 0.151874 -0.325763    1.8408 149 135 132
 -0.705036 -0.0843623    1.71239 173 148 92
0.388136 0.328059  1.57511 87 102 107
0.0608597  0.324356   1.59911 77 80 85
0.452114 0.293509  1.61373 56 70 79
 0.284427 -0.449527   1.87405 94 97 28
 0.955025 -0.346036   1.94858 90 109 124
 -1.02702 -0.586315   2.11373 196 192 191
-0.625263 -0.537394   2.04291 48 47 45
 0.715604 -0.359945   1.79501 109 112 33
-0.277936  0.266353   1.50657 223 223 197
0.463782 0.335857  1.56887 90 105 110
-0.202883 -0.376943   1.73676 255 251 213
 0.415969 -0.477611   1.89657 114 127 48
-0.442785  0.133275   1.48095 221 222 216
-0.461192  0.233383   1.53606 184 161 143
-0.716196 0.0371569   1.60169 162 96 46
 0.283735 -0.695642    2.4066 136 101 71
0.280198 0.381996  1.52998 103 118 125
 -0.128241 -0.0882631     1.7804 145 133 117
-0.531513  0.209165   1.41066 220 216 204
 0.764615 -0.404475   1.78494 73 84 18
-0.681403 -0.134129   1.72065 182 165 139
 -0.683787 -0.0165906    1.67115 184 179 175
-0.213374  0.223311   1.56636 98 107 114
 -0.55487 -0.229092   1.68687 252 253 187
-0.539351 -0.553507   2.13113 56 39 47
-0.778814 -0.394222   1.87794 196 131 93
0.248791  0.27308  1.42229 29 30 34
0.749469 0.166107  1.51879 217 193 169
 0.619443 0.0585405   1.68557 205 190 161
-1.06126 -0.47504  1.95701 228 230 217
-0.863037  0.206016   1.63863 171 161 151
-0.814508  0.296453   1.55191 213 200 168
 0.525888 0.0504386   1.65574 161 149 127
-0.145848 -0.247148   1.72872 166 146 121
-0.230559  0.232102   1.53947 171 164 135
-0.675931  0.314869   1.55834 91 90 95
 0.349985 -0.434571   1.83234 116 126 57
 -0.696855 -0.0996693     1.7073 148 125 94
-0.267903  0.172853    1.4938 166 147 81
-0.845553 -0.386726   1.84795 124 124 132
-0.191088  0.316859   1.59261 79 83 94
-0.704571   0.36531   1.46364 89 127 166
0.220372  0.17744  1.64432 66 74 77
-0.0232881   0.314772    1.59425 63 77 88
-0.744542 0.0108825    1.5829 139 117 60
-0.40663 0.119495  1.52383 232 219 203
-0.635656  0.351677   1.49324 103 118 137
-0.299788  0.182681   1.50526 108 90 8
0.278098 0.354729  1.50423 106 122 135
 0.340369 -0.460088   1.85392 87 94 16
-0.231549 -0.301191   1.75957 255 247 214
-0.492383  0.272239   1.51293 131 127 116
-0.0872155 -0.0162392    1.70497 103 91 91
 -0.717614 -0.0943465    1.65378 189 167 146
-0.784152  0.053157   1.56217 178 170 168
-0.390337 0.0653609   1.57881 216 207 202
-0.773906  0.267694   1.57655 116 116 126
-0.276728  0.398908    1.4008 51 51 53
-0.317593   0.18724   1.50061 72 59 0
-0.736189 -0.571039   2.07691 62 53 54
 0.45614 0.249929  1.51459 91 99 102
-0.528667 -0.233189   1.68627 252 240 218
0.418457 0.215028  1.50646 111 122 124
 0.439591 -0.028834   1.64178 83 95 109
 -1.07768 -0.511564   2.01497 89 88 93
-0.556868  0.366214   1.50532 248 229 196
-0.252742  0.256326   1.50066 233 213 180
-0.184024   0.11408   1.52161 89 80 75
-0.290228 -0.337292   1.77161 193 181 181
  0.569679 0.00134854    1.68536 247 230 204
-0.559021 0.0850893   1.57031 113 100 92
0.237006  0.41314  1.50282 65 83 105
-0.753254  0.320194   1.51838 60 103 158
 0.660597 -0.496576   1.88593 103 111 60
-0.786949 0.0593804   1.57046 197 190 184
-0.82441 0.268163  1.55904 58 73 114
 -0.712884 0.00795684    1.64509 236 227 218
-0.614046  0.167301   1.44783 129 112 92
   0.378982 -0.00864069     1.61241 96 98 111
 0.315096 -0.448182   1.83866 94 101 47
-0.528688  0.390032    1.4715 115 106 101
-0.973566 -0.291475   1.82721 105 96 63
 0.386834 -0.399867   1.79532 114 119 61
-0.838037 -0.329779     1.866 232 216 203
 0.356079 -0.472805   1.86479 105 109 48
  0.62799 -0.433039    1.8473 108 113 31
 0.111194 -0.406266   1.85442 252 250 199
-0.0346611 -0.0356578    1.74882 109 100 93
0.0601195 -0.337915   1.81394 210 186 158
0.892682 -0.49746  1.90538 107 112 20
-0.816992 -0.559568    2.0201 124 125 127
 -0.19962 -0.249492   1.71682 255 255 228
-0.286129 0.0243807   1.63414 65 63 64
-0.498584   0.32264   1.56001 140 116 106
 0.814529 -0.406966   1.77834 101 110 45
  0.542116 -0.0167116    1.62812 219 210 179
0.0393684 -0.322951   1.79479 200 174 149
-0.769784 0.0494242   1.59109 173 172 170
-0.728131  -0.56816   2.09156 157 155 143
-0.0238831   0.162197    1.47065 100 119 126
 0.740549 -0.615678   2.63665 43 58 81
-0.762352 -0.573247   2.02738 156 156 146
 0.402324 -0.439297   1.84267 101 112 36
 0.617741 0.0730953   1.59509 213 193 166
-0.512339  0.180876   1.41457 224 226 223
-0.841996 -0.349949   1.82089 229 200 196
  -0.2644 -0.249506    1.7111 250 244 220
  -0.4239 0.0911101   1.54068 156 137 122
 0.111897 -0.377791   1.88014 252 252 214
-0.225254  0.227647   1.55198 186 184 163
  0.11952 -0.386693   1.88387 253 237 204
-0.315949 -0.480105   1.77126 155 154 134
-0.602322  0.134556   1.42369 115 95 42
-0.106871 -0.147958   1.74569 255 254 227
-0.580126 -0.145014    1.7065 222 201 154
-0.273303  0.271707   1.51611 210 199 179
-0.581032 -0.461727   2.19079 29 44 67
 0.282884 -0.688034   2.41453 122 84 71
-0.862083  0.197221   1.64185 121 115 103
-0.198974  0.127587   1.50354 102 112 121
 0.845922 -0.424353   1.78844 99 104 37
-0.0796453 -0.0675049    1.76776 102 89 73
-0.34083 0.135749  1.50488 126 116 55
-0.211027  0.242532   1.59389 96 86 87
 0.37677 0.301648  1.57311 100 110 109
0.370187 0.306426  1.58158 87 95 97
 0.0786189 -0.0119215    1.65386 186 165 134
0.761752 0.142192  1.51056 217 196 179
-0.443562  0.149586   1.49447 213 207 193
0.0177363 -0.297978   1.77958 255 241 216
0.0424167  0.309546   1.60799 71 72 77
0.166006 0.180415  1.70671 87 91 90
-0.541143 -0.121159   1.67742 253 236 208
 0.792812 -0.367602   1.75636 75 77 28
-0.425393  0.136384    1.5115 237 227 217
0.771091 0.141137  1.50751 211 200 170
  0.39597 -0.377117   1.78226 88 92 42
 0.782811 -0.402478   1.77848 101 110 57
-0.811637 -0.495637   1.99488 252 248 211
-0.166053 -0.269489   1.71287 253 242 212
0.710765 -0.35492  1.79933 133 129 55
 -0.727577 -0.0931675    1.65967 198 173 143
-0.226654  0.324941   1.39372 128 110 62
-0.310483 -0.480721   1.77764 161 159 160
 0.353594 -0.316385   1.76369 111 111 49
-0.646237 0.0550943   1.61025 111 100 96
-0.117263 0.0297833   1.65336 86 100 111
-0.784105 0.0723461   1.56032 170 156 143
-0.750083 0.0335733   1.60357 182 176 164
 0.239947 -0.717756   2.59748 39 46 62
-0.59917 0.406643  1.46846 9 14 33
-0.193425 -0.356401   1.72093 160 139 118
-0.950952 -0.304604   1.96584 178 114 86
 0.845716 -0.536792    1.9039 128 110 62
 -0.165687 -0.0205554    1.69083 124 114 104
-0.371045 0.0935695   1.55963 235 226 217
 0.664941 0.0272227   1.57612 77 66 60
-0.293007 -0.321053   1.77874 189 176 170
 0.738607 -0.346395   1.79974 106 115 58
-0.446336  0.222906   1.54445 109 114 110
-0.415768 -0.312408   1.78277 252 238 199
 -0.78675 -0.387259   1.86989 197 133 89
 0.504652 0.0646168   1.64081 210 186 160
-0.925235 -0.545722   2.05176 192 184 171
0.601249 -0.42975  1.87524 89 98 55
-0.00872519   -0.511722     1.91781 249 250 210
-0.670032 -0.150559   1.70357 180 159 140
0.156965 0.155448   1.6868 69 71 68
 0.334759 -0.445818   1.85043 116 119 72
-0.028838  0.135349   1.48566 73 77 80
0.354623 0.100508  1.39597 213 196 188
-0.806242  0.238406   1.63739 92 92 94
-0.407634 0.0967019   1.53354 185 158 131
-0.717759 -0.316228    1.9518 49 64 87
 0.672097 -0.478773   1.86308 104 111 34
 0.0212654 -0.0726071    1.66313 251 252 218
-0.272891  0.340657    1.3727 114 118 59
-0.443591  0.205054   1.53978 177 157 132
-0.328072  0.191796    1.4805 151 133 69
 0.348274 -0.482721   1.87475 104 107 78
 0.293802 -0.451053    1.8559 71 82 39
0.637863 0.293499  1.55918 70 79 94
 0.656848 -0.503894   1.89328 108 114 66
-0.737577 -0.106396   1.70424 149 121 84
 0.747974 -0.415072   1.79722 116 115 48
-0.599203 -0.115485    1.7127 159 122 95
-0.672317 -0.151104   1.69237 99 72 61
0.391527 -0.47904  1.88749 128 130 80
-0.689025  -0.54417   2.05524 180 175 155
 0.65847 0.153589  1.47778 191 170 143
  0.40574 -0.450346    1.8505 91 100 33
-0.320508  0.115856   1.51902 144 128 76
-0.0621411  -0.273513    1.72221 230 212 174
-0.00169502  -0.0211778     1.68689 152 146 148
 -1.00832 -0.512819   2.01328 81 88 98
 0.397745 -0.471455   1.87855 101 106 65
 0.859702 -0.535875    1.8987 89 91 28
-0.550392  0.226348   1.39796 228 218 206
-0.224331  0.213512   1.53758 110 104 52
-0.249985 0.0741386     1.534 94 54 0
-0.480833  0.141992   1.46052 203 198 192
-0.373105  0.418926   1.45109 103 93 92
0.521468 0.268786  1.45445 75 89 92
-0.349458  0.114371   1.53684 161 156 101
-0.253878 0.0940315   1.53467 139 127 129
-0.265234 0.0763534   1.54901 118 96 82
0.812234 -0.57456  1.94914 104 110 66
 0.400406 -0.346785   1.77027 107 111 50
-0.682737  0.347196   1.46263 80 127 171
  -0.701911 -0.00116838     1.65961 173 167 167
0.168149 0.147942  1.67868 76 78 77
-0.388276  0.160616   1.50703 138 127 73
-0.537033  0.020694   1.54476 113 123 132
-0.535873 -0.509282   2.15599 84 94 106
 0.833226 -0.422216   1.78957 114 119 65
 0.650976 -0.532422   1.91562 127 128 68
 0.277641 -0.411137   1.84627 106 111 79
 -0.667988 -0.0246427    1.68722 189 175 164
-0.532554  0.409575   1.45972 129 111 97
 -0.298915 -0.0495496    1.55487 106 88 16
-0.273013 -0.458825   1.73894 232 226 228
  0.42111 -0.401036   1.80059 103 107 33
0.461392 0.280189  1.53304 87 95 98
-0.947178  -0.33566   1.92876 186 112 85
-0.26468 0.410712  1.41847 58 57 62
-0.475957  0.173174   1.46271 241 229 205
-0.847177 -0.286571   1.89972 244 231 197
 0.316719 -0.432677   1.83362 87 96 41
 -1.01956 -0.481723   1.96237 195 185 158
 -0.687053 -0.0114764    1.67168 168 161 153
-0.942948 -0.341685   1.93106 212 138 99
-0.166248 -0.281394   1.70559 255 253 221
  -0.309885 -0.00671716     1.56233 224 211 202
-0.709649  0.110653   1.51255 119 66 32
 0.370955 -0.449702   1.84786 103 111 51
 0.361776 -0.301519   1.75647 96 95 41
0.229313 -0.56965  2.42212 116 106 94
 0.325871 -0.241701   1.74888 118 117 122
0.826599 -0.44287  1.80587 104 112 29
-0.265753  0.155235   1.48826 160 135 51
0.360831 0.119715  1.41922 179 163 129
 0.735564 -0.574535   1.96036 96 106 43
0.360555 0.107403  1.40896 185 168 138
 0.613403 -0.407284   1.84704 104 112 55
0.349648 0.217684  1.49777 70 81 87
 0.130083 -0.379896   1.88239 177 150 139
 0.861975 -0.367432   1.78348 86 96 23
-0.557857   0.14161   1.50066 87 86 91
   0.117031 -0.00710967     1.60498 188 169 152
-0.456887  0.273067   1.59103 53 62 71
 0.874425 -0.268769   1.86841 231 211 186
 -0.89289 -0.550341   2.01249 232 229 214
 -0.705975 -0.0954244    1.71768 154 138 123
 0.824601 -0.428214   1.79304 112 119 41
 0.633284 -0.413793   1.85611 109 116 64
 0.401082 -0.399229   1.79548 84 90 16
-0.702162 0.0932343   1.50321 172 138 48
  -0.694202 -0.00523016     1.66112 192 186 186
-0.750467 -0.569738   2.05244 255 253 241
0.780514 0.147401  1.50667 193 177 164
 0.368365 -0.237864   1.72145 195 165 165
 -0.643521 -0.0379665    1.67988 30 22 19
-0.820592  0.324356   1.54635 57 60 75
 0.336608 -0.486244   1.87563 111 116 86
-0.838914 -0.336085   1.83474 185 116 77
 0.754233 -0.436481   1.79687 101 111 50
-0.730737  0.284141   1.58474 51 51 53
-0.873864  0.208395   1.62683 134 119 98
 -0.718469 -0.0632963    1.70896 143 144 76
0.00738083   0.137684    1.52246 69 71 83
-0.209514  -0.52293   1.85018 62 68 80
0.513009 0.141084   1.5007 76 77 63
-0.618808  0.324818    1.5126 123 123 115
 0.773866 -0.470966    1.8235 123 133 73
 0.773344 -0.470733   1.82244 92 99 57
0.208584 0.170576  1.64701 70 75 78
-0.455831  0.207691   1.53869 93 83 74
 0.847188 -0.524344   1.89351 124 105 47
0.344976 0.271323  1.54191 60 77 84
 0.626335 -0.372658   1.85139 125 128 41
-0.232264  0.347019   1.38674 133 123 72
-0.568344  0.178006   1.46382 95 94 90
-0.958567 -0.295566   1.82416 96 90 66
-0.506683  0.265167   1.49328 253 238 195
 -0.94922 -0.350342   1.92441 198 128 92
-0.436224  0.180202   1.52614 251 238 193
-0.161742 -0.415835   1.76589 247 251 200
 0.324791 -0.415846   1.81936 93 100 33
0.822187   -0.319  1.78998 109 114 50
-0.725749 0.0439574   1.59188 168 96 58
 0.673237 -0.487524   1.87474 127 128 94
-0.787038 0.0629752   1.57355 172 166 154
-0.206194  0.210355   1.56802 136 129 113
0.755878 -0.33394  1.77935 82 87 46
 0.515044 0.0250484   1.62321 253 233 200
  0.73939 -0.406943   1.78603 121 123 60
-0.548974  0.330568   1.48466 255 242 213
0.160836 0.331272  1.58989 42 42 44
 0.826284 -0.523667   1.89383 121 118 75
-0.495653  0.159882   1.45755 139 125 90
 0.330478 -0.355181   1.77315 90 94 67
 -0.83054 -0.334412   1.87632 237 214 172
 0.296041 -0.475404   1.87639 100 112 88
0.204954 0.189058  1.66787 74 78 81
 0.928841 -0.305127   1.89771 173 173 163
-0.469905  0.121924   1.53351 100 89 83
0.373518 -0.30155  1.75219 108 107 43
-0.661795 -0.494524   1.98496 173 188 209
 0.433767 0.0561814   1.53412 182 174 151
-0.438176  0.190761   1.53355 167 151 125
 0.458691 -0.415469   1.86113 111 117 47
-0.0224034  -0.575555    1.89141 143 144 139
-0.127605 -0.138396   1.73521 249 228 207
-0.737342  0.276029   1.59382 82 82 90
-0.329327  0.271995    1.5009 63 63 63
-0.0484308 0.00805117    1.67092 89 93 104
 0.931129 -0.566545   1.96708 119 121 82
-0.821004   0.23046   1.64734 86 86 88
  0.93519 -0.248451   1.85792 78 107 137
-0.456931  0.336654   1.54795 83 78 82
 0.879962 -0.502623   1.90214 97 100 23
  0.60326 -0.439905   1.85965 96 103 59
 0.656138 -0.521852   1.90474 118 125 71
-0.752433 0.0463635   1.60348 196 178 154
 -1.02853 -0.387158   1.97232 189 114 93
 0.352039 -0.477414   1.86355 121 123 84
0.386576 0.344307  1.57697 91 107 130
-0.119499  0.379448   1.52871 61 69 82
  0.37359 -0.464028   1.85919 100 103 58
-0.347023  0.183917   1.47793 97 85 43
-0.0225736   0.144254    1.49017 70 70 68
 0.230471 -0.308908   1.80235 188 175 166
 0.871619 0.0148288   1.75985 49 57 76
 0.403102 -0.458917    1.8613 109 117 57
 0.17531 0.377818  1.54195 68 84 100
-0.106604  0.400847   1.49821 74 82 95
0.162615 0.205367  1.71026 87 92 96
-0.715911 0.0105178    1.6432 230 225 196
 0.894089 -0.228546   1.79359 77 104 133
-0.650281  -0.06891   1.66144 71 52 45
 0.429052 -0.583633   2.09205 111 102 103
-0.310522  0.113027   1.53015 103 96 42
 -0.84016 -0.512531   1.97407 192 187 183
-0.0071018 -0.0367776    1.73728 97 82 79
 0.599651 -0.463225   1.88219 109 115 79
-0.0544541  -0.365146    1.67707 253 249 214
 0.768495 -0.343255   1.76867 91 97 49
0.0412106   0.41866   1.48306 61 77 92
 -0.754638 -0.0364763    1.67065 74 66 27
 0.839428 -0.415427   1.78534 102 109 41
 0.394615 -0.383203   1.78759 109 109 73
 0.823542 -0.414543   2.27442 86 103 121
  0.84705 -0.519437   1.89787 89 95 21
0.830796   -0.458  1.81726 69 75 13
-0.582866  0.359231   1.50907 76 54 43
 0.799085 -0.528757   1.90311 97 102 44
 0.467504 -0.344205   1.80647 115 121 61
 0.787466 -0.477274   1.82431 107 111 61
-0.520334  0.421009   1.44668 132 115 105
 0.359678 -0.328227   1.75627 92 95 40
0.231508 0.408656  1.50427 72 89 109
0.378825 0.339318  1.58328 88 111 119
-0.829056 -0.513982   1.96686 226 223 214
-0.932455 -0.563067    2.0397 210 201 186
-0.245148   0.21053   1.54758 44 35 6
-0.670145 -0.540051   2.05591 71 70 75
 0.112096 -0.423572   1.84291 247 251 200
-0.549934  0.222872   1.39473 230 223 207
 0.311962 -0.344299   1.77165 103 106 49
 0.858914 -0.546573   1.91341 105 87 23
-0.586804  0.154578   1.49796 93 93 95
  0.32522 -0.487864   1.87507 102 105 84
-0.719057 0.0120602   1.64079 188 181 173
-0.12068  0.41334  1.48058 64 77 96
-0.869624   0.19331   1.67003 76 84 97
0.733005 -0.39256  1.77847 123 129 43
     0.13318 -5.79938e-05      1.59465 191 175 162
 -0.91683 -0.338832   1.90892 127 116 112
-0.406365  0.123285   1.52644 237 221 206
-0.434814  0.320571   1.57724 71 71 73
-0.805058  0.259538   1.60863 60 52 39
-0.238329  0.309335   1.38198 139 130 71
-0.470869  0.216564   1.52271 200 184 171
-0.287776   0.24124    1.4556 117 104 59
 -0.860467 -0.0717652    1.68174 128 111 95
0.496265 0.200518  1.35095 89 70 63
 0.821962 -0.457141   1.81779 110 114 38
0.664927 -0.51291   2.3922 103 109 123
0.161498 0.346504  1.57586 87 92 98
-0.14178 0.398871    1.499 66 75 92
0.496025 -0.12751  1.86154 77 105 126
  0.233322 -0.0614135    1.66063 204 195 190
 0.608711 -0.442519   1.86002 92 100 43
  -1.1581 -0.679995   2.20168 188 181 152
-0.752745 -0.060722   1.64823 195 168 147
  -1.015 0.114952  1.76387 105 108 113
-0.204014  0.352778    1.5456 70 74 85
-0.327552  0.178201   1.49152 149 133 82
  0.38541 -0.425809   1.82295 114 119 78
 0.805503 -0.515232   1.89118 96 104 55
 0.342798 -0.729012   2.63514 49 56 75
0.334703 0.242878  1.55891 79 82 87
 0.928389 -0.570654   1.97306 93 94 52
 0.236577 -0.568779   2.42995 131 105 88
 -0.6945 0.122755  1.52271 85 85 87
0.177358 0.195149  1.68941 104 107 114
 0.67307 0.199276  1.51715 104 104 104
 0.862081 -0.272931   1.86874 83 105 129
 0.803579 -0.389407   1.77238 102 110 37
 0.789872 -0.318505    1.7782 82 90 31
0.182203 0.174276  1.67941 76 80 79
-0.661875 -0.647121   2.20632 84 87 94
-0.26025 0.236204  1.46552 121 108 40
 0.382492 -0.315499     1.759 106 105 49
-0.643429  0.418746   1.44611 91 97 109
0.737376 0.298693  1.46495 13 13 13
-0.376562 0.0352993   1.59864 120 108 94
  0.81664 -0.440885   1.79962 99 107 50
 -0.155108 -0.0511571    1.75527 84 80 81
-0.0469064  -0.060144    1.75337 123 103 94
-0.43753 0.197177  1.54131 163 161 140
-0.959102 -0.279652   1.82417 84 76 55
-0.285816  0.274123   1.50101 110 117 135
  0.78103 -0.380962   1.76743 91 96 40
 0.301073 -0.335117   1.80664 102 104 64
  0.39177 -0.469587   1.87371 94 95 63
-0.231164 -0.258164   1.71751 255 251 203
-0.194034 0.0934207   1.52536 113 99 86
 0.561606 0.0864843   1.62573 154 141 133
 0.831007 -0.392733   1.77046 84 87 30
-0.0567012 -0.0652651    1.77321 116 94 81
 0.618303 -0.421164   1.85435 108 110 45
-0.522968  0.338711   1.53937 98 87 91
 0.466935 -0.608355   2.05853 74 66 17
-0.689269 -0.544324   2.02813 188 188 186
 0.624449 -0.486918   1.89033 97 104 63
 0.676694 -0.368136   1.89981 112 121 92
0.165167 0.159441  1.68341 76 78 75
 0.822387 -0.434446    1.8012 108 111 66
-0.56128 0.168754  1.50282 96 97 99
-0.163028 -0.111956   1.69775 232 208 198
-0.272445 -0.464251   1.73924 192 191 199
-0.707657 0.0947805   1.50158 77 45 0
-0.380569 -0.153839   1.61954 195 171 137
0.325727 -0.47274  1.86962 116 117 57
 -0.32079 -0.349827   1.81145 214 183 162
0.302814 -0.46605  1.86199 102 110 73
-0.448046  0.248303   1.50916 128 124 115
 0.847718 -0.434503   1.80642 93 95 45
 0.654167 -0.511761   1.89349 88 95 43
-0.725294 0.0206033   1.59037 108 95 63
 0.360974 -0.442558   1.83794 108 112 79
-0.487728  0.330433   1.55486 108 93 90
 0.391755 -0.460739   1.86298 128 131 76
0.0613476 -0.298124   1.80611 112 100 100
0.449938 0.343739  1.57664 71 75 86
-0.0291367  -0.290601    1.75362 224 207 179
 0.357919 -0.352907   1.76276 94 103 38
 0.333714 -0.431355   1.82857 109 112 57
 0.321137 -0.354687   1.77469 85 87 74
  0.45748 -0.603497   2.07378 105 104 86
-0.348801  0.145889   1.51139 156 140 52
0.486139  0.25063  1.39899 70 71 76
-0.22064 0.361539  1.37447 87 89 68
-0.145132 -0.602999   1.98767 202 193 188
 -0.764134 -0.0696172    1.63712 104 82 69
-0.0937546  0.0667049     1.6226 96 96 104
 0.601918 -0.256993   2.08175 97 99 111
-0.664428  0.434333   1.42559 77 96 126
-0.0456505   0.139221    1.48697 70 71 76
-0.391387  0.103336   1.52686 134 83 40
 -0.200233 -0.0856183    1.66603 235 212 204
  0.36383 -0.378432   1.78573 87 93 49
  -0.13218 0.00773281    1.67592 115 110 106
-0.923697 -0.580127   2.03833 205 202 197
-0.70448 0.295841  1.57433 79 79 81
-0.256004  0.321481   1.38843 84 80 35
-0.919108 -0.566274    2.0246 222 219 202
-0.0848942  -0.237898     1.7204 251 226 195
 0.328548 -0.435468   1.82982 103 108 50
-0.693579 -0.376391   1.99278 40 47 65
-0.463561   0.21218   1.52873 167 162 133
0.745743 0.184887  1.54463 118 110 108
 0.315405 -0.470214   1.87151 135 137 90
 0.872296 -0.438825   1.82256 121 127 63
-0.279139  0.242993   1.46607 137 123 84
 0.633261 -0.444565    1.8504 106 113 61
-0.334898  0.145699    1.5107 131 118 73
-0.0253607  -0.294548     1.7628 238 221 193
 0.661998 -0.462399   1.85522 95 101 57
0.839481 -0.42521  2.29982 98 104 126
-0.182999  0.132034   1.48111 104 115 119
-0.187722  0.136115   1.50325 104 115 119
 0.639252 -0.446861   1.84876 99 105 61
-0.347083  0.194818   1.47303 146 128 78
0.101126 -0.39131  1.87762 111 103 84
 -0.745301 0.00704912    1.58875 144 126 86
 0.286943 -0.423194   1.84742 93 96 77
 -1.07742 0.0101378   1.83796 171 147 101
-0.621528  0.402474   1.46411 59 75 100
 0.205189 0.0045193   1.68524 98 89 84
-0.597662  0.168517    1.4505 143 105 96
 -0.207734 0.00277125    1.69226 119 105 96
-0.467836  0.222218   1.52517 200 151 111
 0.388623 -0.396291   1.79183 124 129 63
     0.51905 -0.000245284      1.60762 217 216 198
0.870631 0.039023  1.76317 35 39 51
-0.136721 -0.043229   1.73687 124 111 105
0.294016  0.38636  1.53255 71 69 70
-0.305301 0.0638653   1.56531 145 134 132
 0.13536 0.165603  1.71853 72 73 65
  -0.16741 -0.0742655    1.73019 104 95 80
 -1.06093 0.0347545   1.82823 255 200 168
 0.489594 -0.603173   2.03647 129 119 68
 -0.73922 0.0194632   1.58651 143 124 66
 0.769127 -0.552074   1.93032 67 75 34
 0.355038 -0.430202   1.82838 101 106 65
-0.888216 -0.560146   2.01212 255 255 253
-0.79258  0.30761  1.56745 46 46 56
 0.334849 -0.334429   1.76249 83 90 38
 0.667361 -0.433163   1.83684 104 109 69
 0.871341 -0.254605   1.86431 145 133 121
 0.741537 -0.380306   1.77949 112 117 53
 0.766905 -0.375159   1.77111 102 109 68
0.903206 -0.52403  1.92927 92 99 22
0.728729 -0.37001  1.78266 105 113 36
 0.822525 -0.423611   1.78955 109 117 57
-0.310914 0.0907645   1.55389 88 80 18
0.411815 -0.44993  1.85263 100 103 74
 0.380633 -0.358947   1.77614 94 92 69
-0.566888 -0.569463   2.10925 58 96 133
0.723457 -0.34758  1.81072 111 116 60
 0.0250762 -0.0765891    1.66953 252 224 176
-0.0100093   0.010628    1.67778 84 82 83
 0.383747 -0.399007   1.79163 92 97 41
0.00378886   0.370972    1.53607 69 87 107
 0.42505 0.322504  1.59801 74 73 78
 0.237229 -0.803973   2.66126 26 27 32
-0.604241  0.403375   1.46738 79 85 101
0.429301 0.333113  1.60109 81 80 86
-0.08254 0.358614  1.54526 82 89 95
-0.731032 -0.103627   1.63026 171 148 117
-0.761424 -0.564339    2.0308 224 222 207
0.315345 -0.35312  1.77582 100 104 77
-0.482106  0.232629   1.51372 194 136 98
 0.377871 -0.451909   1.84962 112 119 41
-0.010973  0.292115   1.60038 80 83 92
 -0.626741 -0.0720438    1.70652 97 97 99
 0.662004 -0.420809   1.82964 108 113 47
 0.371234 -0.151273   1.77269 150 144 144
 0.319618 -0.481896   1.86743 136 144 84
 0.889598 -0.195667   1.75083 134 149 170
 -0.89876 -0.625975   2.09405 217 216 214
 0.855124 -0.418882   1.79157 112 117 59
 0.594791 -0.373535   2.10901 37 44 60
-0.218845 -0.508265   1.82412 58 67 84
-0.708319  0.116866   1.51573 117 67 34
 0.355392 -0.444241   1.84424 118 122 89
 0.658742 -0.412452   1.84138 125 127 64
0.607223 -0.45933  1.87653 96 102 58
-0.0549188   0.364155    1.54294 61 73 85
-0.623761 -0.497018   2.17248 74 89 110
-0.504146  0.271454   1.50203 225 199 164
 -0.163958 0.00695384    1.67713 112 99 90
 0.299345 -0.419204   1.83378 99 101 77
0.169505 0.164315  1.67969 79 81 80
 0.413817 -0.443378   1.84955 99 101 61
 0.764419 -0.355556   1.76171 84 91 40
 0.363208 -0.242316   1.73686 125 119 119
 0.397385 -0.377581   1.77942 94 96 31
-0.666641  -0.62849   2.18303 77 77 77
 0.496598 0.0389394   1.60078 247 227 200
