ply
format ascii 1.0
element vertex 1162
property float x
property float y
property float z
property uchar red
property uchar green
property uchar blue
end_header
 -0.22111 -0.339181   2.60361 123 127 130
-0.757057 -0.246599   2.39414 213 205 192
-0.304102  -0.35332   2.60274 104 105 107
0.0642941 -0.266706   2.51528 98 130 54
-0.020603 -0.261041   2.50879 84 88 89
-0.503775 -0.330946   2.39814 65 66 60
-0.625643 -0.277682    2.4584 235 228 220
-0.441934  -0.27865   2.48196 168 168 166
-0.295126 -0.278151   2.49708 235 217 197
-0.559422 -0.113291   2.14022 58 54 51
-0.810587 -0.219312   2.34662 242 235 219
-0.550967 -0.117916   2.18612 164 154 127
-0.528156 -0.108994   2.18141 180 204 144
-0.709203 -0.278069    2.4457 239 230 215
-0.657192 -0.283671   2.46155 229 222 212
-0.259659 -0.430052   2.37158 61 78 36
-0.106247 -0.282346   2.53937 105 110 116
-0.418934 -0.269374   2.47075 159 149 150
-0.604287 -0.287834   2.47564 246 238 225
-0.280988 -0.341206   2.59249 232 213 209
-0.335323 -0.341422   2.58521 187 182 178
-0.329509 -0.291413   2.50635 159 124 102
-0.251663  -0.40269    2.6952 147 141 143
-0.735948 -0.234798   2.38112 231 219 207
 -0.84144 -0.242516   2.39038 242 235 219
-0.0738745  -0.292507    2.54964 93 93 93
-0.347221 -0.324288   2.55771 237 221 206
 -0.68166 -0.288774   2.46135 231 222 213
-0.309359 -0.416898   2.71056 105 110 116
-0.152133 -0.313799   2.57878 144 143 138
-0.0507801  -0.275211    2.53377 98 102 101
 -0.25976 -0.321576   2.56055 255 231 221
-0.584158 -0.123978   2.19375 146 144 103
-0.720047 -0.268545   2.43015 246 238 225
-0.0447277  -0.301323    2.56512 140 131 122
-0.322728 -0.397691   2.68262 124 124 124
-0.336382 -0.285993   2.49717 155 144 98
-0.742406 -0.195746   2.31627 225 219 205
-0.697618 -0.287351   2.45895 241 231 221
-0.370024 -0.429835   2.71482 102 111 120
-0.774933 -0.256329   2.40276 234 224 212
-0.613837 -0.105941   2.16396 166 163 146
-0.584621 -0.290088   2.48424 241 233 222
-0.325971 -0.349733   2.60105 150 146 145
-0.316967 -0.386917   2.66551 159 151 149
 -0.56313 -0.325863   2.42387 108 109 95
-0.0857391  -0.313714     2.5803 136 125 119
-0.674102 -0.263538    2.4329 227 221 207
-0.597597 -0.446431   2.58223 211 211 177
 -0.63219 -0.282398   2.46366 209 202 192
-0.786419 -0.217713   2.34435 246 237 222
-0.0614449  -0.301392    2.56239 160 151 146
-0.706618 -0.132094   2.11536 173 165 163
-0.317286 -0.377669   2.64016 246 219 210
-0.108891 -0.358302    2.6442 161 150 132
 -0.27462 -0.404527   2.69555 114 122 125
-0.664407 -0.105794   2.13742 156 153 162
-0.702618 -0.211193   2.35038 238 226 212
-0.184915 -0.334328   2.60173 153 152 148
-0.719075 -0.207542   2.33855 234 225 210
-0.361687 -0.421819    2.7019 116 118 131
-0.180703  -0.40134   2.44051 110 128 76
0.0656375 -0.224076   2.46325 106 106 106
-0.787819 -0.208357    2.3298 209 201 188
0.00234065  -0.231043    2.47094 97 105 108
-0.828102 -0.253936   2.39483 240 229 211
-0.245777 -0.400519   2.69283 143 141 142
-0.286704 -0.340762   2.59226 166 154 154
-0.438642 -0.284913   2.48632 194 190 179
 -0.56892 -0.122629   2.19257 174 163 117
-0.572639 -0.273667   2.46204 188 181 171
-0.250729 -0.311971    2.5488 255 229 218
-0.556706 -0.280312   2.47325 189 185 176
-0.754758 -0.213699   2.34508 223 214 199
-0.757404 -0.259352    2.4153 241 233 220
-0.323597 -0.387536   2.66777 166 159 151
-0.309269  -0.42316   2.35089 85 94 63
-0.128094   -0.3769   2.67399 171 152 122
-0.871635 -0.276363   2.42102 243 232 212
-0.176383 -0.270704   2.51309 148 139 140
-0.587457 -0.126894   2.15174 134 126 107
-0.254725 -0.326125   2.58509 164 155 148
-0.792731 -0.234037   2.36742 242 234 221
-0.166838 -0.305897   2.56356 144 140 139
-0.582554  -0.13852   2.21157 245 230 211
-0.0836174  -0.366481    2.64449 110 119 72
 -0.33513 -0.349067   2.59892 158 152 152
-0.604426 -0.294941   2.48444 240 232 221
-0.283664 -0.391052   2.67586 100 100 102
-0.374743  -0.26031   2.46295 56 49 41
-0.776856 -0.234561   2.37386 242 234 221
 -0.18795 -0.394879    2.4547 122 136 113
 -0.68957 -0.285729   2.46482 230 220 210
-0.739772 -0.181401   2.23616 172 156 143
-0.766494 -0.265757   2.42236 241 233 220
-0.0854347  -0.307476     2.5704 124 126 123
-0.606625 -0.114502   2.14365 81 73 70
-0.0954942  -0.318665    2.58571 133 129 118
-0.365548  -0.40678   2.68074 124 126 123
-0.805513 -0.266951   2.42343 243 234 225
-0.770032 -0.259222   2.41105 226 216 204
-0.713844 -0.211863   2.34896 241 234 218
 -0.57471 -0.226177   2.28276 117 137 68
-0.309399 -0.429965   2.34462 74 82 61
0.0505808 -0.229671    2.4696 114 116 113
-0.264607 -0.342348   2.60172 131 126 130
-0.563634 -0.117704   2.18634 206 196 135
-0.133742 -0.288935   2.54231 113 118 122
-0.166171 -0.351147   2.63642 145 153 155
-0.252154 -0.330851    2.5877 150 146 145
-0.133962 -0.386537   2.68985 136 139 108
-0.350253 -0.350291   2.58911 225 216 207
-0.290183 -0.438032   2.41645 63 70 52
-0.200556 -0.334134   2.59376 152 146 146
-0.189611 -0.343483   2.61649 123 126 133
-0.354152 -0.279733    2.4888 164 143 116
-0.430585  -0.26065   2.45678 160 134 119
-0.174921 -0.339035   2.60757 147 145 148
-0.222709 -0.414115   2.72306 167 156 154
-0.198897 -0.348023   2.62217 123 126 131
-0.0141286  -0.249607    2.49584 90 94 95
 -0.82853 -0.249625    2.3803 245 237 224
-0.189666 -0.401513   2.44417 100 120 67
-0.102404 -0.315085    2.5805 137 136 141
-0.776853 -0.264474   2.41976 232 224 211
-0.550825 -0.291463   2.48965 181 172 165
-0.250933 -0.449674    2.7703 118 112 114
-0.261108 -0.367275   2.64085 143 136 130
-0.764928  -0.15017   2.17247 175 167 148
0.0181168 -0.347343   2.44431 69 78 61
-0.0531147  -0.302969    2.56429 124 115 110
-0.245013 -0.408562   2.70631 126 123 118
-0.420442  -0.26381   2.46065 170 141 111
-0.536772 -0.279941   2.47564 164 155 150
-0.236677 -0.325728   2.58529 149 145 142
-0.193954 -0.334063    2.5997 145 145 133
-0.671256  -0.20456   2.19867 175 178 151
-0.815592 -0.200744   2.31552 223 213 201
-0.756378 -0.240384   2.38573 213 205 192
-0.343858 -0.397366   2.32912 103 114 74
-0.318154 -0.391929   2.67502 100 101 103
-0.584128 -0.113096   2.17651 127 124 93
-0.555177 -0.223571   2.29295 81 84 65
-0.208712 -0.343802   2.61327 103 107 108
 -0.62553 -0.293514   2.48941 233 225 214
-0.189669 -0.362314   2.64874 131 126 123
-0.216675 -0.341043   2.61089 119 122 127
-0.315018 -0.345666   2.59841 133 133 131
-0.754749 -0.253774   2.40706 236 228 217
-0.107176 -0.357999   2.63832 140 132 121
-0.646211 -0.272283   2.44803 211 204 196
-0.392634 -0.253817    2.4519 91 78 72
-0.0264275   -0.23519    2.47599 75 82 88
-0.729799 -0.200721   2.32926 224 214 202
-0.736713 -0.272204   2.42877 243 236 226
-0.284652 -0.384913   2.66574 141 135 137
-0.685376 -0.217032   2.36141 243 232 212
-0.589124 -0.117112   2.17449 127 127 101
-0.276027 -0.436084   2.41825 104 125 68
-0.0417997  -0.286407    2.54426 131 125 127
-0.741924 -0.244352   2.39476 230 222 209
 0.119611 -0.162764   2.38924 126 128 127
-0.784991 -0.247496   2.39204 210 198 186
-0.415544 -0.277066   2.48251 154 150 147
-0.296542 -0.273871   2.49427 237 216 197
-0.250661 -0.362653   2.63517 117 120 127
-0.0891744  -0.359064    2.64804 91 95 68
 -0.593994 -0.0807433    2.07224 70 70 80
-0.752433 -0.162207   2.21428 95 85 76
-0.100834 -0.361399   2.64459 115 118 91
-0.62942 -0.29228  2.47961 239 233 219
-0.32818 -0.38707  2.65956 193 161 162
-0.165416 -0.358438    2.6378 139 141 138
-0.311472 -0.342223   2.59101 121 122 117
-0.391719 -0.404411   2.67493 182 173 166
-0.337227  -0.39543   2.67151 187 177 178
-0.730224 -0.209753   2.34071 219 212 194
-0.0970027  -0.358963    2.63899 103 109 73
-0.283654 -0.434766   2.44768 113 122 95
-0.584568 -0.121165   2.18809 160 160 98
-0.427638 -0.264469   2.45958 163 128 109
 -0.31433 -0.293213   2.51842 167 146 119
-0.154521 -0.399605   2.70692 134 128 112
-0.680626 -0.277583   2.45405 206 196 186
-0.669311 -0.296144   2.48276 241 233 220
-0.628293 -0.205344   2.29842 175 176 160
 -0.75092 -0.172916   2.25705 124 128 103
-0.420019 -0.342381   2.57863 228 220 207
-0.707552 -0.206108   2.34322 213 204 189
 -0.79313 -0.215034   2.34095 242 234 221
-0.278227  -0.43661   2.40827 107 118 75
-0.231964 -0.334094   2.59621 114 117 122
-0.558297 -0.129572    2.2075 135 128 100
-0.666703  -0.10255   2.08586 40 47 55
-0.357539 -0.354505   2.60185 204 193 189
-0.775639 -0.201767   2.32375 200 192 181
-0.172112 -0.346427   2.62302 124 124 124
-0.293268 -0.349951   2.60313 133 121 125
-0.318172 -0.414298   2.70583 96 99 104
-0.609413 -0.291935   2.48034 235 229 217
-0.647589 -0.273556   2.28677 104 103 101
-0.811471 -0.264106   2.41854 239 232 222
-0.350641 -0.283436   2.48443 127 131 80
 -0.81798 -0.221451   2.34529 243 236 220
-0.768971 -0.213195   2.34084 230 220 208
-0.270903 -0.344247   2.60739 113 111 114
 -0.73323 -0.174731   2.26631 101 108 90
-0.332219 -0.393078   2.67476 132 128 127
-0.679285 -0.294347    2.4687 238 230 219
-0.701457 -0.234395   2.38026 238 224 213
 -0.15567 -0.348491   2.63026 130 125 122
-0.534122 -0.158825   2.25274 172 169 160
-0.352223 -0.360145   2.60641 214 203 197
-0.731332 -0.206062   2.33521 228 219 204
-0.634781 -0.125183    2.1699 114 115 109
-0.563565 -0.272598   2.46154 190 183 175
-0.354532 -0.328666   2.56949 221 209 197
-0.700692 -0.207411   2.34452 212 204 183
 -0.40705 -0.376315   2.64054 200 191 182
-0.280577 -0.360325   2.63277 155 144 142
-0.158262 -0.286091    2.5343 127 120 128
 -0.23652 -0.337688   2.59887 137 139 138
-0.0759492  -0.306713    2.57005 142 133 124
-0.556381 -0.116447   2.18769 159 151 114
-0.165803 -0.413462   2.71304 146 126 99
-0.00614462   -0.229918     2.46809 82 91 96
-0.111346 -0.297145   2.55834 92 97 103
-0.309477 -0.267372   2.48535 110 89 70
0.0493229 -0.263333   2.51492 78 98 49
-0.220845 -0.323466   2.58529 157 148 143
-0.777857 -0.199949   2.31757 204 196 185
-0.778872 -0.270897   2.42554 251 245 233
-0.199687  -0.34036    2.6114 78 82 85
-0.685971 -0.212454   2.35263 226 219 203
-0.297444 -0.272676   2.49217 241 218 202
-0.746632 -0.218628   2.35076 220 219 201
-0.142625 -0.285468   2.53679 97 100 107
-0.600389 -0.222796    2.2971 96 91 61
-0.0830209  -0.309383    2.57106 118 118 108
0.0610478 -0.266731   2.51552 81 111 39
-0.145717 -0.392495   2.69007 114 111 96
-0.674648 -0.257754    2.4241 223 216 198
-0.265578 -0.358203   2.62597 119 117 118
-0.525407 -0.105868   2.17031 206 211 205
-0.689341 -0.202626   2.31921 90 100 76
-0.758648 -0.263443   2.42294 241 233 220
-0.573953 -0.114103   2.18235 167 159 112
-0.753351 -0.198755   2.32546 243 236 220
-0.218442 -0.332896   2.59275 97 98 102
-0.454122 -0.293821   2.48636 160 160 160
-0.347718 -0.162619   2.29452 70 76 64
-0.223884 -0.365145   2.64175 145 139 139
-0.569063 -0.130993   2.21166 185 168 140
-0.0873975   -0.31394    2.58116 137 126 120
-0.575825 -0.217507    2.3684 53 49 38
-0.741507 -0.238675   2.38497 212 198 187
-0.359323 -0.281063    2.4904 165 138 119
-0.268182 -0.407353   2.69979 105 108 115
-0.395173 -0.150636   2.26692 44 51 35
-0.326926 -0.135374    2.2586 182 187 123
-0.724124 -0.248448   2.40251 228 222 208
-0.68489 -0.20875  2.34751 172 163 148
-0.71147 -0.28501  2.45402 242 234 221
-0.728931 -0.222275   2.35795 252 243 228
-0.783273 -0.259038   2.40923 222 213 198
  -0.7169 -0.197727   2.32822 188 179 162
-0.164151 -0.312307   2.56945 140 134 138
-0.530431 -0.205528   2.36361 97 94 77
-0.0464393  -0.300799    2.55942 115 108 98
-0.696422 -0.294664   2.46756 249 241 230
 0.140075 -0.163156   2.39868 110 116 114
-0.708483 -0.199292   2.33166 170 161 144
-0.653131 -0.283391   2.46283 205 201 190
-0.191424 -0.417285   2.37022 106 131 74
-0.193724 -0.348764   2.62426 95 98 105
-0.748525 -0.254964   2.40879 237 229 216
-0.218522 -0.354302   2.62952 106 106 114
-0.518293 -0.112688   2.19038 189 189 127
-0.421182 -0.355646   2.59653 231 221 209
-0.778265 -0.251767   2.39373 203 191 179
-0.0861087  -0.285772    2.54119 111 114 121
 -0.79623 -0.240139   2.37561 249 245 233
-0.265382 -0.332038   2.58746 156 142 133
-0.340582 -0.291934   2.51153 220 199 180
-0.348275 -0.393931   2.66831 172 170 158
-0.169979 -0.346242   2.61781 145 144 140
  -0.49827 -0.0818637    2.15069 111 112 116
0.0247043 -0.198886   2.42097 70 80 82
-0.115561 -0.304815   2.56389 88 93 97
-0.152829 -0.399149   2.70046 109 111 89
-0.750158  -0.16435   2.18532 175 166 125
-0.0457774  -0.277445    2.52225 94 98 97
 0.130974 -0.166299    2.3966 116 123 116
-0.747256 -0.235999   2.38027 199 191 178
-0.0705598   -0.30358    2.56483 152 143 136
-0.151811 -0.402724   2.70718 89 89 65
-0.330169  -0.33721   2.58067 166 159 151
-0.0300125  -0.305577     2.5665 69 91 42
-0.256327 -0.397588   2.68714 121 119 122
-0.128872 -0.388852   2.69033 74 78 53
-0.0810748  -0.362418     2.6389 103 121 61
-0.303541 -0.351247   2.60175 123 123 125
-0.186885 -0.399839   2.43654 96 110 75
-0.305926  -0.29719   2.52279 166 149 119
-0.095459 -0.310935   2.56848 68 63 67
-0.250131 -0.435288   2.40968 79 93 58
-0.604034 -0.235629   2.39527 106 108 103
-0.279845 -0.347586   2.60558 92 96 95
-0.761997 -0.202377   2.32545 227 219 208
-0.588327 -0.275969   2.46351 164 157 147
-0.815029 -0.188319   2.31066 164 155 140
-0.733692 -0.205648      2.34 246 239 223
-0.312198 -0.339891   2.58639 129 130 125
-0.743153 -0.271319   2.43109 245 239 225
 -0.32198 -0.287354   2.50279 146 128 104
-0.210128 -0.430822   2.74018 56 57 52
-0.365191 -0.261919   2.43999 77 74 67
-0.0258633  -0.279233    2.53934 146 144 132
-0.31099 -0.27888  2.49322 195 173 134
-0.616244 -0.293229   2.48475 250 242 229
-0.101203 -0.283638   2.53479 79 84 90
-0.0204443  -0.280093    2.53406 146 137 130
-0.730475 -0.195789   2.31867 184 177 161
-0.771369 -0.256773   2.40582 219 209 199
-0.149186 -0.395862   2.69474 93 95 74
-0.328839 -0.396395    2.6782 96 97 92
-0.278493 -0.429469    2.4082 81 89 66
-0.239344 -0.361166   2.63468 87 92 96
-0.374908 -0.276663    2.4775 46 46 36
-0.201654 -0.338059   2.60576 105 108 113
-0.341438 -0.393285   2.66525 177 168 159
-0.305783 -0.274924   2.48965 139 119 94
-0.382485 -0.404529   2.67912 146 142 141
-0.262672 -0.424096   2.35994 75 85 60
-0.0437518  -0.298221    2.55648 146 140 128
-0.318853 -0.288395   2.50891 103 92 74
-0.598758 -0.122855   2.13869 59 58 56
-0.651069 -0.289157   2.33742 70 78 55
-0.213789  -0.33222   2.59384 85 86 90
-0.0739072  -0.300454    2.56033 139 130 121
  -0.2498 -0.428654   2.34386 75 84 55
-0.715818 -0.209096   2.34387 194 185 170
-0.757653 -0.228416   2.36423 216 208 195
 -0.26792 -0.354585   2.62092 88 94 94
-0.0900937  -0.356078    2.64079 92 105 62
-0.295099 -0.437841   2.40879 101 117 80
 -0.23868 -0.329893   2.59056 137 137 135
-0.352227 -0.408648   2.68418 129 124 131
0.0616051 -0.264129   2.51288 94 125 57
-0.157033 -0.307075   2.56786 110 109 114
-0.716929 -0.248259   2.40275 236 230 216
-0.672091  -0.27763   2.45194 197 189 178
-0.190878 -0.353219   2.62965 76 84 86
-0.868466 -0.276197   2.42631 242 233 216
-0.790573 -0.234546   2.36696 234 226 213
 0.041851 -0.243954   2.48953 83 84 78
-0.321619  -0.29616   2.51445 128 110 90
-0.365836 -0.199495   2.35619 58 62 65
-0.805375  -0.20344   2.31655 93 76 69
-0.807015 -0.205032   2.32041 104 81 75
-0.806335 -0.224539   2.35432 233 225 212
-0.364184 -0.413924   2.68861 104 107 112
-0.765294  -0.23887    2.3782 166 158 147
-0.181996 -0.349496   2.62716 71 76 82
-0.651534 -0.265838   2.29237 84 78 78
-0.169385 -0.335344   2.60781 152 151 147
-0.253431 -0.406239   2.70282 80 81 85
-0.137552 -0.384052   2.68373 156 149 121
 0.047784 -0.276012   2.52546 88 119 51
-0.249715 -0.437721   2.37794 75 90 51
-0.550138 -0.113214   2.18795 150 141 112
-0.755336 -0.252668   2.40127 216 208 197
-0.409932 -0.355584   2.59736 228 218 206
0.0611608 -0.271032   2.52303 64 88 40
0.0653734 -0.265559   2.51404 97 128 58
-0.833788 -0.255236   2.39833 246 238 219
-0.0353086  -0.285525     2.5429 143 139 130
-0.185346 -0.341015   2.61353 90 94 97
-0.211193 -0.353771   2.62853 87 90 97
-0.727111  -0.18227   2.27181 71 75 58
-0.529492 -0.119262   2.22163 150 150 96
-0.281141 -0.437652   2.41778 98 115 60
-0.615461 -0.117704    2.1772 139 144 78
-0.435199 -0.349341   2.58412 232 220 206
-0.735896 -0.237748    2.3842 179 165 154
-0.820117 -0.247993   2.38491 237 228 213
 -0.82556 -0.250317   2.38796 227 217 205
-0.225439 -0.424712   2.73374 100 100 100
-0.295916 -0.363465   2.63117 165 152 144
-0.577702 -0.127729   2.20547 152 138 112
-0.420449 -0.251323   2.44722 86 76 64
-0.157748  -0.29393   2.54571 142 136 136
-0.107201 -0.307115   2.57342 86 89 94
-0.737332 -0.204519   2.33257 237 228 213
-0.521882 -0.238421   2.35435 79 77 78
0.0467658 -0.260365   2.51415 91 102 62
-0.701324 0.0261817   2.03247 53 62 71
-0.603123 -0.295947   2.48876 226 218 205
0.0860201 -0.168988   2.39158 87 92 95
-0.204122 -0.334215   2.59892 82 83 87
-0.106899 -0.361307   2.64295 105 98 80
-0.610501 -0.301542   2.48994 233 225 212
-0.205508 -0.329064   2.59075 152 146 146
-0.526862 -0.107727   2.14416 96 99 104
-0.282574 -0.402207   2.69098 84 89 93
-0.394322 -0.129615   2.23967 117 128 88
-0.680118  -0.26517   2.43515 187 179 166
-0.812352 -0.193853   2.30985 150 142 131
-0.809224 -0.261449   2.41201 222 212 200
-0.658291 -0.290347   2.34172 38 47 30
 -0.55815 -0.315925    2.4211 109 113 98
-0.119701 -0.374889   2.66564 172 156 120
-0.169887 -0.275301   2.51536 92 92 92
-0.00873965   -0.248574     2.49682 88 87 83
-0.720882 -0.219589   2.35875 241 232 217
-0.351524  -0.26959   2.47867 112 107 75
 -0.59142 -0.127227   2.15984 123 129 81
-0.680227 -0.224086   2.37197 204 188 172
 -0.32699 -0.333816   2.57782 190 179 173
-0.114483 -0.283102   2.53382 78 83 89
 -0.32623 -0.385692   2.65512 136 115 112
 -0.517365 -0.0946321    2.15612 91 102 96
-0.226746 -0.339575     2.604 112 113 117
-0.686103 -0.207032   2.33487 105 97 78
-0.292456 -0.295011   2.51828 176 153 135
-0.561231 -0.208635   2.29032 111 123 87
-0.168038 -0.414056   2.72498 122 112 100
-0.789367 -0.258441   2.40711 214 204 192
-0.610375 -0.289941   2.47978 249 245 233
-0.036238 -0.306459   2.57088 62 81 36
-0.187239 -0.353496   2.62966 60 70 72
-0.180569 -0.279995   2.51826 147 137 136
 -0.599999 -0.0808525    2.11074 74 82 85
-0.179811 -0.336932   2.60519 110 109 107
-0.850949  -0.24539   2.37753 249 243 229
-0.246598 -0.407043   2.70665 105 101 100
-0.740778 -0.191277   2.29376 43 50 32
-0.591125 -0.118479   2.14024 50 48 51
-0.134282 -0.385311   2.68229 137 132 90
    -0.57 -0.112133   2.18206 156 138 98
-0.393051  -0.38588   2.64691 155 148 142
-0.166793 -0.305659   2.56158 148 144 143
-0.502176 -0.132959    2.2235 195 190 108
-0.742657 -0.214347   2.34497 252 245 229
-0.835434 -0.249719   2.39083 236 229 213
0.0394454 -0.268535   2.51905 57 74 42
 -0.60176 -0.290794   2.47959 242 234 223
-0.205108 -0.401278    2.4706 109 124 91
-0.599249 -0.239029   2.24315 205 199 177
-0.226125 -0.358675   2.62954 82 85 90
-0.728484 -0.217058   2.35335 247 244 227
-0.401885 -0.168158   2.29928 63 66 57
 -0.29737 -0.393432   2.67882 89 90 94
-0.581989 -0.445058   2.57226 219 211 188
-0.725984 -0.210487   2.34559 244 235 220
-0.402149 -0.412859   2.69089 91 95 96
-0.295128 -0.392158   2.67303 93 94 89
 -0.19054 -0.340099   2.61601 92 95 100
-0.765017 -0.196659   2.30953 132 127 124
-0.232752 -0.396255   2.68998 106 106 104
-0.0323532   -0.26716    2.51755 73 73 73
-0.731707 -0.199512   2.32268 234 225 210
-0.211211 -0.341578   2.61098 101 105 106
-0.370839  -0.38051   2.64429 182 174 163
-0.705779 -0.211835   2.34691 202 193 178
 0.111557 -0.164673   2.38674 123 125 122
-0.0766641  -0.285142    2.54402 76 77 82
-0.639381 -0.271278   2.44947 167 160 152
-0.144142 -0.299822   2.55391 68 73 79
-0.789508 -0.238995   2.37772 234 226 213
-0.249556 -0.447248   2.77632 67 52 55
-0.376055 -0.382555   2.64762 152 143 136
-0.571299 -0.290554   2.48696 201 192 183
-0.562183 -0.209778   2.36192 51 47 36
-0.816909 -0.229676   2.37477 244 236 223
-0.166338 -0.308069   2.56784 143 139 136
-0.266049 -0.387509   2.67545 101 99 104
-0.0693021  -0.348699    2.63453 87 115 54
-0.382435 -0.274978   2.48526 74 61 55
-0.0734449  -0.329335    2.60695 136 136 102
-0.376524 -0.389107   2.65357 183 173 163
-0.115935 -0.377053   2.66816 163 142 111
-0.747243 -0.184265   2.30401 85 81 70
-0.537148 -0.122705   2.19778 146 149 82
-0.0799771  -0.345938    2.62531 74 101 34
-0.0984275  -0.316989    2.58615 121 118 111
-0.274588 -0.414245   2.71128 88 93 89
-0.746793 -0.168708   2.17916 194 189 167
0.0336952 -0.254706   2.50437 87 88 82
-0.312103 -0.402729   2.68809 86 86 88
-0.0719537  -0.305584    2.56791 138 127 121
-0.840036 -0.256476   2.40433 254 247 231
-0.349293 -0.275158   2.48511 118 121 74
-0.392136 -0.152011   2.26667 43 50 34
 -0.582728 -0.0628651    2.09371 26 29 36
-0.320072 -0.337393   2.57991 145 135 133
-0.198186 -0.336122   2.59641 145 144 139
-0.752453 -0.262403   2.41602 246 238 225
  -0.345 -0.16519   2.2952 62 69 53
-0.302997 -0.415854   2.70965 74 78 87
-0.126138 -0.290582   2.54159 93 98 102
 -0.77426 -0.190428   2.30444 86 81 75
-0.825158  -0.25816   2.39759 236 226 201
-0.767209 -0.245095   2.38785 178 170 157
-0.598847  -0.25765    2.4287 129 125 116
-0.798359 -0.222001   2.34622 235 228 212
-0.0552677  -0.323055    2.59583 92 112 49
-0.0950932  -0.358814    2.65212 108 111 66
-0.246394 -0.394841   2.68626 73 77 80
-0.376422 -0.183524   2.32535 86 87 91
-0.673487 -0.300184   2.48242 236 228 215
 -0.34996 -0.282505   2.49504 118 96 73
-0.799157 -0.246503    2.3956 173 159 148
-0.288625 -0.385531   2.66415 133 127 127
-0.120176 -0.379578   2.66979 161 145 109
-0.679495 -0.220515   2.36403 174 162 146
-0.236671 -0.437633   2.74865 50 44 46
0.0529658  -0.26345   2.51547 49 72 26
-0.629492 -0.276979   2.45709 186 179 171
-0.355107 -0.347113   2.58302 234 223 217
-0.567896 -0.226283   2.37175 76 72 61
-0.237721   -0.3531   2.62026 66 70 73
-0.386704 -0.271993   2.47054 56 56 46
-0.831663 -0.260453    2.4029 242 234 211
 -0.47104 -0.344201   2.59324 230 221 206
-0.323035 -0.293345   2.51152 96 79 59
-0.212493 -0.353135   2.63127 87 86 92
 -0.70497 -0.272376   2.44044 191 180 174
-0.601825 -0.286046   2.47463 230 222 209
 -0.595218 -0.0475694    2.09493 80 89 96
-0.0288869  -0.277136    2.53544 119 114 108
-0.678959 -0.306334    2.4809 240 231 224
-0.157815 -0.310182   2.57244 97 95 98
-0.745317 -0.187052   2.28375 48 51 42
-0.805181 -0.261214   2.40746 217 207 195
-0.127184 -0.287135   2.53862 62 67 71
-0.628506 -0.118623   2.15436 115 119 118
-0.459282 -0.350495    2.5888 232 220 204
-0.740763 -0.184498    2.3087 98 94 82
 -0.19739 -0.351838    2.6294 69 74 80
-0.104853 -0.320649   2.58738 130 132 119
0.0728075 -0.171998    2.3926 94 96 93
-0.294432 -0.347343   2.59704 91 89 90
 -0.608964 -0.0817231    2.09276 53 56 63
-0.157235 -0.400716   2.69775 113 106 88
-0.0637853  -0.341536    2.62536 86 115 57
-0.762583 -0.274844   2.43552 243 237 225
-0.152468  -0.27874   2.52863 77 80 89
-0.149879 -0.286975     2.538 71 70 76
-0.784966 -0.244295   2.38404 214 207 189
-0.750899 -0.159432   2.17959 149 144 112
 -0.23681 -0.438127   2.76224 78 78 78
 -0.70378 -0.203272   2.33457 168 159 142
-0.341364   -0.4047   2.68862 78 77 82
-0.135536 -0.381754   2.68069 150 143 114
0.0527164 -0.274897   2.52334 75 105 41
-0.396189 -0.400407   2.67537 212 201 195
-0.725497 -0.258274   2.41117 248 242 230
-0.591802 -0.255536   2.43042 125 125 115
-0.163968 -0.349872   2.63057 70 71 73
-0.691413 -0.215558   2.35686 239 228 210
-0.685126 -0.203944   2.33035 72 71 53
-0.0367382  -0.282277    2.53605 83 84 78
-0.808513 -0.202228   2.31639 77 62 55
-0.296408 -0.395169    2.3113 45 51 37
 -0.24936 -0.452779   2.76918 71 69 70
-0.505884 -0.147021   2.24289 155 146 113
-0.779543 -0.261444   2.41083 195 185 173
 0.127558 -0.148103   2.38201 105 107 104
-0.453793 -0.348956   2.58067 232 218 205
-0.586213 -0.251098   2.42791 124 124 114
-0.753389 -0.207888   2.33964 241 234 218
-0.164931 -0.311643   2.56525 99 94 98
 -0.44297 -0.360046   2.59015 224 214 202
-0.724478 -0.264655   2.42323 241 235 221
-0.734662 -0.188307   2.28574 52 55 44
-0.698917 -0.290874   2.46361 244 238 226
 0.114962 -0.170588   2.39653 105 110 116
-0.645438 -0.300511    2.4899 231 223 212
-0.707299 0.0253096   2.03227 56 56 66
-0.398193 -0.354505   2.59823 227 217 205
-0.291447 -0.394818   2.67586 90 91 93
-0.261388 -0.344193   2.60428 91 92 97
-0.796898 -0.258258   2.40907 217 207 195
0.0386484  -0.25066   2.49966 76 78 75
-0.569429 -0.330628   2.42953 111 111 101
0.00924048   -0.22351    2.45953 66 73 81
-0.379933 -0.283601   2.49677 196 184 172
-0.277186 -0.361641   2.62855 141 131 130
-0.373611 -0.156623   2.28533 42 48 36
-0.688921  -0.21595    2.3569 213 201 185
-0.602465 -0.115841    2.1674 65 62 43
 -0.519238 -0.0968695    2.16088 100 112 102
-0.557061 -0.114165   2.14839 54 53 48
-0.279831 -0.340908   2.59678 129 105 105
-0.802215 -0.241603   2.39651 177 163 152
-0.487174 -0.342108   2.40993 47 53 41
-0.387243 -0.261596   2.45776 78 69 62
-0.822632 -0.254917   2.39318 226 214 200
-0.750283   -0.2086    2.3396 237 231 215
-0.340742 -0.333059   2.57741 168 155 149
-0.0253522  -0.305419    2.56798 59 87 38
-0.301163 -0.397683    2.6841 50 53 60
  -0.5894 -0.262984    2.4374 123 123 113
-0.705095 -0.198058   2.32512 104 92 78
 -0.52404 -0.229658   2.38488 51 48 41
-0.558706 -0.288948   2.48692 153 144 135
-0.715529 -0.230035   2.37585 168 158 146
-0.411019 -0.272963   2.46892 52 49 42
-0.626674 -0.301488   2.49557 222 214 203
-0.326894 -0.285322   2.50407 137 111 88
-0.699368 -0.300346   2.48999 248 244 232
-0.270084  -0.33633    2.5811 165 147 133
 0.175211 -0.154579   2.38959 74 82 85
 -0.37106 -0.399213   2.67479 175 167 164
-0.347922  -0.26554   2.44619 60 55 51
-0.370277 -0.251221   2.44989 95 86 79
-0.606978 -0.236076   2.40381 137 136 132
-0.348175 -0.267402   2.44959 76 71 68
-0.597684 -0.265211   2.44736 138 134 125
 -0.23287 -0.364336    2.6392 62 67 70
-0.331126 -0.341659   2.58689 117 113 110
-0.328703 -0.353829   2.60466 104 104 102
-0.183334 -0.343178   2.61782 64 67 76
-0.557917 -0.271025   2.45852 142 135 127
-0.601625 -0.291595   2.48289 236 228 217
-0.331108  -0.40989   2.69853 65 69 72
 -0.18315 -0.338484   2.61698 80 83 90
-0.403222 -0.407331   2.68378 144 139 136
 -0.71246 -0.282046   2.44906 218 208 196
-0.296617 -0.341112   2.59218 100 100 102
-0.552216 -0.280078   2.47409 153 149 138
 -0.640875 -0.0657986    2.05638 45 48 55
 -0.35254 -0.405781   2.68013 140 137 130
-0.576962 -0.227203    2.3992 115 114 112
-0.360371   -0.2654   2.47215 66 57 48
-0.304226 -0.309908   2.52242 152 137 108
-0.170737 -0.416447   2.72912 42 42 32
-0.596478 -0.126339   2.15721 93 102 57
 -0.532665 -0.0864165    2.13702 45 47 42
-0.0936383   -0.36508    2.65496 134 130 92
-0.681598 -0.220175   2.37665 202 189 172
-0.708586 -0.287239   2.45285 201 191 179
-0.613723 -0.125033   2.18365 141 132 77
-0.149431 -0.280683   2.52809 76 81 87
-0.017072 -0.295356   2.56634 67 100 29
-0.308691 -0.412955   2.70813 77 81 84
-0.384224 -0.174885   2.31134 60 66 56
-0.342876 -0.354006   2.60475 141 138 133
-0.417476 -0.267017    2.4661 81 67 56
-0.713077 -0.270034   2.43725 179 169 157
-0.131674 -0.278547   2.53514 54 57 62
-0.434666 -0.280444   2.47914 114 112 113
-0.716842 -0.235813   2.38472 149 141 128
 0.113273 -0.169237   2.39131 112 114 113
-0.421698 -0.379886   2.63471 224 216 203
-0.123892 -0.377134   2.66797 157 139 103
-0.261354 -0.421819   2.45134 57 62 39
-0.316809 -0.373283   2.63756 195 166 160
-0.822389 -0.237542   2.37522 235 227 214
-0.312107 -0.351817   2.60219 93 93 95
0.0817459 -0.164704   2.37883 101 101 101
-0.339821  -0.40199   2.68353 90 90 90
-0.600699 -0.300259   2.49104 234 226 213
-0.54055 -0.32378  2.52153 235 227 216
-0.258955 -0.336356   2.59199 81 82 86
-0.370863 -0.280651   2.48151 59 57 45
-0.499704 -0.136682   2.22719 159 159 87
-0.392268 -0.186219   2.32869 88 91 96
-0.286165 -0.402082   2.69096 71 76 79
-0.140153 -0.277896    2.5247 61 66 72
-0.796459 -0.325457   2.48613 240 236 224
-0.333276 -0.392971   2.67918 77 77 79
-0.826314  -0.25685   2.40175 207 198 169
-0.687681 -0.281742   2.45463 175 167 156
-0.161799 -0.296371   2.54811 149 141 139
 -0.35962 -0.415546   2.69706 74 66 77
-0.582519 -0.248853   2.42432 124 123 118
-0.233803 -0.356962   2.63247 59 62 67
0.0259958 -0.248321   2.48851 51 56 50
-0.680687 -0.225984   2.36792 176 160 144
-0.594351 -0.278486   2.46291 151 144 138
-0.547792 -0.135936    2.2231 167 167 105
-0.251225 -0.337498   2.59371 70 71 75
-0.416861 -0.143081   2.24795 44 53 34
-0.176434  -0.36401   2.64234 89 87 90
-0.373426 -0.252068   2.44857 90 79 73
-0.332935 -0.333845   2.57929 170 161 156
-0.175485 -0.358918    2.6436 70 71 76
-0.381901 -0.140807    2.2834 40 47 31
-0.602476 -0.247587   2.42382 117 117 109
 -0.506069 -0.0827858    2.11236 107 120 129
-0.562547 -0.244826   2.42054 111 111 101
-0.375837 -0.259147   2.43671 63 63 63
-0.768446 -0.242526   2.38062 161 153 140
-0.400372 -0.150089   2.26526 41 48 32
-0.587283 -0.066323   2.09319 26 29 36
-0.635345 -0.267705   2.44218 132 128 119
-0.356856 -0.399347   2.66776 112 107 104
-0.0517904  -0.340104    2.62335 64 96 31
-0.353179 -0.148632   2.27314 75 79 64
-0.652826 -0.297936   2.48307 236 228 217
-0.0498931  -0.323357    2.59044 68 97 33
-0.562174 -0.240339   2.40812 114 113 111
-0.692808 -0.287042   2.48145 246 242 231
-0.815683 -0.246708   2.39126 194 182 166
-0.306962 -0.403542   2.69305 55 60 64
-0.746731 -0.206384   2.33853 231 228 211
-0.774036 -0.213082   2.34505 187 178 163
-0.664057 -0.274943   2.45364 146 142 131
 -0.661532 -0.0794694    2.08471 37 40 47
-0.243062 -0.412455   2.71236 67 68 72
-0.773087 -0.253923   2.39685 150 140 128
-0.234558 -0.324053   2.58197 146 141 135
-0.375883 -0.349088     2.594 197 182 175
-0.424443 -0.260861    2.4551 137 101 79
-0.828016  -0.22702   2.34592 230 222 209
-0.769078 -0.254815   2.39631 158 148 136
-0.528536 -0.148985   2.23718 183 174 135
-0.475162 -0.118962   2.21148 152 165 86
-0.373362 -0.400279   2.67026 186 177 168
 -0.63625 -0.315446   2.50571 234 230 218
-0.710988 -0.275011   2.43969 183 173 163
 -0.39667 -0.409434   2.68207 105 105 105
-0.731891  -0.23633   2.37254 146 136 127
-0.202189 -0.349529   2.62953 48 55 61
-0.131329  -0.38298   2.68015 141 134 90
-0.036117 -0.263079   2.51258 43 44 49
-0.229741 -0.387907   2.65239 147 143 132
 -0.363628 -0.0984005     2.1735 182 182 184
-0.586219 -0.312359   2.51428 237 230 212
-0.743556 -0.240822   2.39086 154 146 133
-0.235938 -0.414465   2.71787 54 52 57
-0.735823 -0.176334   2.25057 123 111 99
-0.556672 -0.226675   2.38922 57 51 39
-0.233358 -0.433856   2.74269 54 44 43
-0.328149 -0.390913   2.66972 111 106 103
-0.676821 -0.267351   2.43749 159 153 141
-0.282416 -0.393617    2.6823 54 59 63
-0.742926 -0.187486   2.30752 91 87 75
-0.543047 -0.205371   2.35894 80 77 58
 -0.32938 -0.354085   2.59458 120 119 117
-0.766268 -0.182467   2.29168 62 64 53
-0.199964 -0.357349   2.63372 46 49 56
-0.221933 -0.356692   2.63319 61 62 66
-0.818396 -0.267293   2.41379 224 216 203
-0.523645 -0.113967   2.18566 120 139 57
-0.335083 -0.333114   2.57848 171 162 157
-0.791878 -0.258511   2.40166 169 160 143
-0.812914 -0.219834   2.34089 229 222 204
  -0.4067 -0.274558   2.48413 131 126 123
 0.126931 -0.146938   2.36436 120 121 116
 -0.10129 -0.305698   2.56813 52 51 56
-0.429246 -0.188408    2.2781 39 46 28
-0.358106 -0.393345   2.66582 135 135 127
0.0301102 -0.248614    2.4982 58 59 53
-0.341492 -0.351296    2.5893 112 113 108
-0.812387 -0.236804   2.36919 242 234 221
    -0.71 -0.201818   2.32732 123 114 97
-0.344946 -0.349365   2.59607 149 139 138
 -0.10067 -0.287872    2.5418 46 51 57
-0.347232 -0.410714   2.69083 55 53 56
-0.266953 -0.333641   2.59281 114 107 101
-0.499762 -0.240977   2.38894 23 28 24
-0.286628  -0.26664   2.49184 203 191 165
-0.481626 -0.126058   2.21232 143 157 72
-0.274372  -0.38999   2.67211 68 69 73
-0.315079 -0.351994   2.60143 96 96 98
-0.683485 -0.274383   2.44156 152 144 131
 -0.68737 -0.302514   2.47895 242 233 224
-0.418306 -0.148201   2.26177 48 53 33
-0.481086 -0.395565   2.64326 223 215 202
-0.376466 -0.257207   2.43227 37 36 34
-0.869231 -0.269877   2.41167 243 229 202
-0.864804 -0.255757   2.41048 243 232 204
-0.367304 -0.171629   2.30741 52 59 41
-0.696979 -0.201249   2.32967 86 77 62
-0.139583 -0.365969   2.61765 137 130 114
-0.488193 -0.156906   2.25844 64 71 53
-0.396669 -0.282418   2.48866 141 134 124
-0.356254 -0.369802   2.62456 186 179 163
-0.765261 -0.232958   2.36205 154 146 133
-0.403057 -0.164224   2.28989 55 58 49
-0.298981 -0.347551   2.61227 80 86 84
-0.799104 -0.229799   2.35578 178 170 157
-0.378998 -0.277169   2.48655 52 37 32
-0.123591   -0.3784   2.67483 142 133 90
-0.643985 -0.271434   2.44287 141 134 126
-0.754061 -0.179264   2.22495 113 105 102
-0.249105 -0.362221   2.63179 62 65 72
-0.0880687  -0.281633    2.54963 35 40 46
 -0.32609 -0.357006   2.60951 122 118 119
 -0.642272 -0.0974982    2.10354 43 48 52
-0.357692 -0.174862   2.31709 31 37 25
-0.345662 -0.135552   2.26418 43 50 34
-0.701956 -0.246969   2.29557 30 24 28
-0.533175 -0.206915   2.36951 42 36 22
-0.781177 -0.239598    2.3793 204 195 178
-0.763411 -0.336939   2.53446 238 231 215
-0.303103 -0.348087    2.5991 94 94 96
-0.510323 -0.109965   2.16852 117 116 121
-0.409442  -0.25346   2.45784 60 43 35
-0.365526 -0.261233   2.46472 32 28 19
-0.129636 -0.339757   2.62753 136 129 113
-0.781408 -0.226539   2.35465 163 151 139
-0.349299 -0.365607   2.62466 185 178 162
-0.323347  -0.41502   2.69836 50 57 63
-0.692532 -0.261316    2.4342 151 144 128
-0.406063 -0.128928   2.24565 45 52 34
-0.200779  -0.41003   2.70484 138 132 116
-0.471641 -0.350603   2.58726 227 218 203
-0.244346 -0.364093   2.64043 63 62 67
-0.350905 -0.411533   2.68783 63 42 59
-0.243423 -0.430187   2.72658 31 39 42
  -0.3641 -0.339696   2.58915 98 89 84
-0.594982 -0.252595   2.42132 127 124 117
-0.563661 -0.216225   2.36632 46 42 31
-0.393793  -0.11056   2.15595 132 138 138
0.0187783  -0.25569   2.50438 57 57 55
-0.762032 -0.237984   2.37468 157 148 139
-0.115448 -0.298077   2.55733 61 66 72
-0.538867 -0.209797   2.36267 43 41 28
-0.747419 -0.247009   2.39122 153 145 132
-0.711346 -0.218354   2.36886 136 127 112
-0.468589 -0.102279   2.16232 108 111 116
-0.207965 -0.426038   2.75522 34 34 34
-0.275293 -0.392803   2.67721 64 69 65
0.0362294 -0.221489   2.41393 59 64 70
-0.308091 -0.369345   2.64271 171 151 140
-0.717929 -0.313261   2.46841 247 243 231
-0.604454 -0.258847   2.43786 125 121 112
-0.424094 -0.139613   2.25499 28 37 20
-0.237471 -0.300946   2.54639 175 152 138
-0.358179 -0.168147   2.30052 42 47 40
-0.545796 -0.294659   2.50582 231 225 209
-0.696289 -0.261874   2.44081 156 148 135
-0.305544 -0.351348   2.60957 79 83 86
-0.443483 -0.272815    2.4744 97 97 97
-0.194018 -0.319787   2.58484 155 149 137
 -0.44254 -0.125683   2.23027 68 76 55
-0.564202 -0.293859   2.48724 156 147 138
-0.401137 -0.136832    2.2468 69 73 56
 -0.53616 -0.228594   2.40385 51 47 36
-0.665592 -0.099947   2.11131 69 74 80
-0.258394 -0.408304   2.69706 65 66 70
-0.412923 -0.278681   2.48968 114 106 104
-0.336075 -0.106911   2.20238 111 112 116
-0.289176 -0.329816   2.58299 182 175 157
-0.265709 -0.356647   2.61276 50 53 60
-0.941964 0.0353671    2.2903 156 175 190
-0.369077 -0.411807   2.69238 70 75 79
-0.631778 -0.314978   2.49702 234 230 218
 -0.68677 0.0228979    2.0202 70 82 98
0.115132 0.388428  1.53834 242 224 200
0.0323565  0.321712   1.44973 234 236 235
-0.168488  0.116208   1.21779 184 198 209
 -0.39579 0.0515166   1.15366 159 176 196
 0.577606 -0.507612   2.77308 119 138 153
-0.745025 0.0566036    1.2573 211 224 230
 -0.218168 -0.0332521    1.19001 176 177 182
-0.483282  0.512791   1.27975 202 182 171
0.0833095  0.455638   1.44577 226 192 157
-0.69761 0.158715  1.29204 84 107 113
 0.898666 -0.276178   2.20555 116 145 65
 0.687572 -0.433648   2.50858 135 152 81
-0.04948 0.545237  1.30716 223 212 210
-0.686287 0.0891529   1.27262 96 119 125
 0.0764471 -0.0292101    1.23405 233 239 237
0.318521 0.125517  1.81874 192 195 184
  -0.21959 -0.0545376    1.20513 204 215 221
0.140221  0.50697  1.38759 193 171 148
 0.603499 -0.406136   2.44919 128 141 72
 -0.213431 -0.0316357    1.19224 178 175 184
0.491412  0.13088   1.8621 139 139 127
-0.745915  0.145717   1.30091 29 51 65
 0.540516 0.0996467   1.73026 120 139 73
0.386635 0.369354  1.49208 237 233 221
0.470487 0.179675  1.69489 107 119 71
0.449462  0.42038  1.41202 99 118 72
0.425227 0.463867  1.39904 172 184 138
-0.496452 -0.331937   1.64109 156 164 177
-0.435628  0.203984   1.24744 100 123 137
0.451077 0.408203  1.42219 120 136 89
 0.527062 -0.334409   2.38178 129 155 56
-0.19495   0.5214  1.31783 200 183 173
0.750763 0.339647  1.59185 225 230 234
0.0881798   0.38654   1.54803 236 226 214
0.481827 0.431113   1.3964 169 182 136
 0.539477 0.0616257   1.72806 108 121 78
 0.476593 -0.689378   2.81539 134 148 97
-0.360629 0.0929468   1.17911 122 138 161
-0.193163 -0.165071   1.36714 238 236 237
-0.84633 0.325665  1.40381 87 107 116
-0.733498 0.0773721   1.28424 58 77 91
  0.990051 0.00357145    2.09551 231 231 231
 0.693782 -0.376527   2.44506 191 195 194
-0.17118 0.524628  1.32541 196 172 160
  0.53396 -0.297528   2.38341 136 162 75
 0.600366 -0.416098    2.4377 150 160 110
0.279764 0.232242  1.68015 239 227 215
-0.00585821   0.0230583     1.21862 225 235 237
 0.852496 -0.140604   2.06056 129 150 93
 0.618257 0.0438682   1.78906 78 96 44
 0.859313 -0.177035   2.07133 123 141 89
0.544961 -0.66354  2.88344 114 124 87
0.553961 0.263798   1.5472 131 143 105
0.465738 0.455888  1.38911 98 119 63
0.0529082  0.512707   1.37001 223 210 204
-0.733726  0.270425   1.34185 47 64 72
-0.788253 -0.388106   1.69857 188 188 190
-0.325466  0.439584   1.40423 125 113 101
  0.722132 -0.0439144     1.9107 148 170 105
 0.470747 0.0732846     2.016 136 127 112
0.805726  0.10363  2.03726 188 181 173
0.446878 0.422203   1.4058 142 161 105
0.043648 0.507044   1.3723 213 198 191
0.445061 0.409253  1.42715 116 128 90
 0.205472 0.0362975   1.87878 233 248 229
 0.860529 -0.391899   2.48771 177 190 111
0.148536 0.407359  1.53994 181 167 154
0.541337 0.261928  1.54674 116 133 91
-0.724242  0.149767    1.2956 54 76 87
 0.418856 -0.605971    2.7113 129 144 85
 0.574853 -0.511414   2.79859 204 218 221
 0.486123 -0.267078   2.36159 135 157 82
0.409696 0.372768  1.46508 171 187 142
 0.655301 -0.425417   2.45971 130 144 93
0.534334 0.135253  1.70375 86 107 30
 0.0163151 -0.0183901    1.19974 186 198 210
-0.0772674    0.52102    1.33435 194 175 168
 0.262232 -0.644815   2.71744 90 100 75
-0.643874  0.022147   1.25614 72 127 168
0.715056 -0.50101  2.52259 121 138 84
-0.185596 -0.167998   1.36758 217 216 222
  1.17051 -0.648939    2.9457 107 122 93
 0.482442 0.0555413   2.05541 159 152 136
  0.080361 -0.0330539    1.22165 235 242 252
-0.657449 0.0219477   1.25634 79 135 170
 0.583664 0.0265795   1.75621 132 148 112
 0.61382 -0.37438  2.45483 104 121 50
 0.374234 -0.321497   2.34338 130 149 68
 0.638488 -0.101677   2.25666 160 167 195
-0.0182899    0.50974    1.37234 217 186 165
 0.656275 -0.291668    2.5991 110 126 97
0.539058 -0.31481  2.36977 147 163 101
  0.945075 -0.0217022    2.07473 121 122 116
-0.739744 -0.400066   1.71383 233 241 255
-0.403324 0.0152394   1.13087 144 153 170
    0.552 0.0379691    1.7291 86 97 63
0.793342 0.345034  1.61547 160 166 156
-0.086696  0.522341   1.32686 202 180 167
 0.0314043 -0.0226008    1.20438 240 244 255
0.169958  0.36297  1.60871 225 208 188
-0.610305   0.48265   1.30476 193 175 171
 0.630175 -0.381585   2.46788 108 122 61
0.555851 0.634719  1.22629 115 116 118
  0.89148 -0.264125   2.17752 149 175 102
 0.432306 -0.307844   2.33751 154 180 109
0.501913 -0.30522  2.34642 157 178 113
-0.0484751   0.403611    1.46079 210 208 211
0.297267 0.185048  1.74467 229 237 240
0.0940109  0.502813   1.39381 201 172 154
-0.105342 -0.265793   1.60931 237 239 238
0.522741  0.11916  1.71251 163 179 106
 0.355713 -0.346998   2.35017 164 184 89
-0.621968  0.499693   1.27732 237 213 213
  1.16705 -0.439457   2.55676 121 141 90
 0.998946 0.0265833   2.09122 233 234 239
-0.495239  0.496133   1.31743 197 178 164
0.431415 0.235877    1.676 160 171 173
  0.418831 -0.0551131    2.05933 89 99 88
    0.95621 -0.00221802     2.09646 174 173 171
0.689526 -0.49456  2.51258 156 169 116
0.836666 0.228955  1.78369 147 165 66
 0.750652 -0.337859   2.67406 116 116 114
-0.750724 0.0923279   1.24443 160 174 183
 0.789233 -0.531677   2.56168 164 175 119
 0.721796 -0.483644   2.48959 162 182 85
 0.618003 -0.466447   2.51314 152 164 128
-0.00408439    0.517981     1.34971 206 193 184
0.734404 -0.22483  2.53761 226 212 199
0.85308 0.18129 1.80297 200 194 178
 0.233876 -0.620897   2.76881 104 117 91
0.441547 0.403449  1.43836 95 103 90
0.575166 0.644608   1.2181 90 94 97
0.0782358 -0.607553    2.6531 119 132 106
0.688114 0.175718  1.65886 204 215 185
 0.26934 0.262983  1.73184 165 152 144
 0.700235 -0.668383   3.04888 74 75 70
  0.53731 -0.286988     2.404 128 144 108
 0.681999 -0.431965   2.46974 152 163 120
0.811307 0.094898  1.86291 163 184 91
0.441127 0.347242  1.55755 253 246 236
 0.48158 0.146206  1.68804 155 171 109
 0.762786 -0.448411   2.50663 140 158 106
-0.00823591     0.46643     1.42897 194 168 155
 0.594763 -0.437404    2.4836 133 144 112
-0.525573  0.478124   1.32333 230 218 206
 0.658974 -0.456784    2.4779 156 170 111
0.288472 0.187484  1.75129 235 244 249
  0.484334 -0.0991307    2.06807 126 154 95
 0.946795 0.0301197   2.06646 232 239 223
  0.941266 0.00757105    2.07796 217 217 209
  0.3205 0.405849  1.46878 161 170 165
  0.501744 -0.0651604    2.08794 120 133 113
0.322731 -0.53953  2.62178 124 136 88
 0.604545 -0.381835   2.43988 156 169 115
  0.83987 -0.206186   2.10727 121 143 81
-0.760067  0.153688   1.27464 65 83 93
 0.852661 -0.178062   2.06735 138 154 115
 0.554912 -0.312945   2.39763 125 143 83
-0.497797  -0.32538   1.64262 159 163 175
 0.584898 -0.387778    2.4499 113 125 85
0.456464 0.392953  1.43674 82 90 67
0.314765 0.575203  2.44374 117 108 93
  0.553784 -0.0265016    2.18984 138 138 140
-0.452183  0.491989   1.32262 182 170 158
0.462837 0.185189  1.70149 63 73 46
  0.78119 -0.250725   2.57343 153 153 141
0.498816 -0.35376  2.35833 145 172 75
  0.956563 -0.0013666     2.0882 193 192 190
0.843903 -0.19975  2.11518 122 142 91
    0.543 -0.333642   2.39831 139 153 100
 0.499138 -0.383569   2.38105 127 142 103
0.541847 0.108881  1.73149 114 125 82
-0.722618 0.0404833   1.27989 98 121 137
 0.166897 -0.648952   2.67665 122 137 94
0.392729 0.245042  1.69066 166 160 162
 0.800541 -0.210079    2.1108 155 179 129
 0.665066 -0.513915   2.57026 157 169 107
 0.0939578 -0.0688119    1.21158 185 200 207
 0.353803 -0.640235   2.68614 116 131 92
-0.173522  0.516746   1.33238 216 192 182
 0.741044 -0.386063   2.47151 105 119 96
0.0066868   0.31543   1.43344 237 238 240
 0.605896 -0.405192   2.45135 162 174 102
0.655834 -0.41192  2.45872 109 124 83
-0.549768 -0.281737   1.58731 242 238 235
0.151764 0.441275  1.49172 223 202 185
-0.739676 0.0551661   1.26393 137 162 182
-0.686747 0.0149665   1.26878 88 140 177
0.437846 0.412037  1.43355 89 99 74
 0.706833 -0.465187   2.46467 142 163 94
 0.825623 -0.240653   2.15126 145 173 99
0.0649385  0.552846    1.3154 158 112 125
-0.340666  0.558914    1.2507 74 79 75
 0.609375 -0.374993   2.44481 138 147 90
  0.495337 -0.0950706    2.06934 89 110 67
0.411917 0.158176  1.77443 110 117 101
 0.595204 -0.471304   2.52906 115 134 89
0.235027 -0.62284   2.7301 111 125 89
-0.202625   0.52731   1.29677 207 188 182
 1.02055 -0.67426  2.89478 122 137 104
-0.0577108  -0.132853     1.2884 133 146 154
 0.799217 -0.530177   2.56421 149 157 110
  0.593704 -0.0380246    1.74609 126 145 90
 0.443823 -0.308391   2.33964 122 142 89
  0.42826 -0.264949   2.44905 69 77 62
 0.82966 0.243164  1.76232 149 164 83
-0.733828 0.0361104   1.24779 180 187 193
0.481041 0.167392  1.71012 90 98 77
 0.694827 -0.217337   2.50799 210 194 178
 0.510129 -0.324905   2.36395 115 138 58
-0.742095 0.0918512    1.2789 75 94 108
 0.730998 -0.355849   2.48227 34 40 30
 0.250898 -0.591348   2.74102 67 72 65
 0.884238 -0.192328   2.09318 144 170 109
0.305519 0.369845  1.52468 127 126 121
-0.765741  0.306287   1.38292 90 99 114
0.846195 0.191071   1.8153 225 219 193
 0.134683 -0.676592      2.75 122 133 101
 0.848014 -0.204151   2.10632 117 140 84
  1.19123 -0.743338   3.04728 141 151 99
0.535984 0.102955  1.72424 131 150 86
-0.280491  0.536905   1.28743 196 139 154
  -0.534481 -0.00404652     1.32409 99 117 139
 0.790776 0.0623605   1.97486 114 121 103
0.00315832 -0.0387794    1.17926 168 181 198
 0.953829 0.0280677   2.06749 236 240 239
 0.0213581 -0.0334473    1.19354 175 183 194
  1.13991 -0.489474   2.58596 120 151 81
0.527224 0.111893  1.73773 84 94 57
0.488247 0.114849  1.88782 166 160 148
  0.852226 -0.0372569    1.99983 122 142 93
 0.683828 -0.347354   2.58655 80 76 73
 0.0781256 -0.0583293    1.20811 184 197 205
0.0116204  0.446282   1.44923 216 189 168
0.566533 0.318294  1.60243 74 76 65
0.164285 0.316849  1.66618 132 122 120
0.388463 0.389703  1.45906 80 88 67
0.125433 0.444206  1.48044 219 197 173
 0.401935 0.0542193   2.06853 126 137 97
 0.853573 0.0966793    1.8962 101 126 45
0.912633 -0.37393  2.55063 139 162 80
-0.0324607   0.069583    1.23479 161 180 194
-0.122361  0.513272   1.33589 168 146 148
 0.818962 -0.230921   2.13371 145 170 102
 0.845968 -0.189326   2.13277 85 102 60
  0.862042 -0.0197557    2.02559 97 107 83
  0.36658 -0.300933     2.369 74 84 57
 0.934697 -0.180742    2.1132 127 157 85
-0.215545  0.583727   1.22521 90 93 100
 0.719097 -0.480654   2.48074 179 197 98
-0.718455   0.22543   1.32049 64 83 90
0.0765867   0.18598    1.3834 172 185 194
 0.890135 -0.289984   2.22474 101 115 62
  1.16673 -0.414551    2.5507 78 91 63
0.0261193 -0.171688   1.36135 99 117 137
  -0.5466 -0.374406   1.66422 141 149 160
 0.430256 -0.353496   2.37644 109 132 62
0.212082 0.411198  1.48304 241 223 201
 0.663394 -0.468012   2.48613 139 156 86
 0.622506 -0.466667    2.5031 123 137 88
0.458018 0.298733  1.60471 162 179 187
0.895363 -0.16668  2.08158 137 162 105
 0.167992 -0.620399   2.67154 118 134 97
 -0.856381 -0.0342779    1.47836 134 143 160
-0.741933 0.0594154   1.24662 187 194 200
-0.306968  0.157736   1.22954 90 109 126
-0.312014   0.24491   1.28575 66 79 98
0.0782358 0.0229408   1.26847 215 224 229
 0.474825 -0.271676   2.35557 106 129 77
-0.167083  0.441936   1.44041 225 211 198
 0.485515 0.0901921   1.97189 142 143 127
0.0946811 0.0637763   1.30867 173 190 197
  0.49356 -0.668878   2.83785 89 101 65
 0.281036 -0.119617   2.10067 157 191 97
 0.732062 -0.409089    2.4663 144 165 106
0.568885 0.645822  1.21707 122 123 127
 0.665837 -0.258031   2.53496 117 118 87
-0.0999853  0.0580035    1.20415 190 200 212
  -0.29241 -0.0895197     1.2144 159 171 187
-0.321396  0.240198   1.28338 90 110 134
-0.0135189   0.499276    1.37907 209 183 160
0.00181876   0.188268    1.33957 193 210 220
 0.910604 -0.200549   2.10522 150 183 102
 -0.542092 -0.0493309     1.3005 79 91 107
-0.402738 0.0841435    1.1775 162 179 199
-0.105213  0.454477    1.4342 249 222 193
 0.32253 0.286379  1.60018 221 222 217
  1.11804 -0.481972   2.59269 109 135 64
-0.740041 0.0754429   1.27501 72 92 101
-0.768167  0.199779   1.28306 23 42 56
 0.670121 -0.420124   2.47006 146 163 92
  0.84465 -0.212956   2.12498 144 167 97
-0.714175  0.160893   1.29168 58 77 91
    1.055 -0.437203   2.60314 53 76 47
0.365785 0.371201  1.49746 247 238 229
 0.861429 -0.171374   2.08367 100 116 80
-0.187018 -0.173995   1.36475 243 238 234
-0.802783 -0.345719   1.61648 215 214 212
-0.0315762   0.523784    1.33768 202 182 175
  -0.12683 -0.0208135    1.23062 83 91 104
-0.116172   0.11945   1.23516 215 224 231
 0.989165 -0.158227   2.13306 132 157 89
 -0.22271 0.0226144   1.14345 141 160 175
0.0847952 0.0492139   1.29077 170 183 191
 0.35518 0.255249  1.65929 215 217 216
-0.525575 -0.357442   1.67866 96 108 122
0.100803 0.482373  1.38904 201 167 140
-0.956331 -0.521752   1.99299 98 110 110
 0.467955 -0.292137   2.34566 107 125 75
